# .PCD v0.7 - Point Cloud Data file format
VERSION 0.7
FIELDS x y z
SIZE 4 4 4
TYPE F F F
COUNT 1 1 1
WIDTH 1663
HEIGHT 1
VIEWPOINT 0 0 0 1 0 0 0
POINTS 1663
DATA ascii
-0.816046 12.537174 0.565497
-0.622403 12.535374 0.547356
-0.071782 12.563191 0.590043
0.991949 12.654580 0.577102
1.024232 12.574011 0.554899
-0.378177 12.975268 0.527741
-0.229334 12.783689 0.548342
0.906283 12.873652 0.624485
-0.536577 13.242719 0.653200
0.845649 13.025550 0.663384
-1.828952 13.371524 0.702655
-1.723057 13.478334 0.667231
-0.533226 13.304060 0.579246
-0.462414 13.474965 0.553391
-0.128572 13.460915 0.736312
-1.783485 13.515433 0.698329
-1.723624 13.500125 0.661880
-0.931029 13.735741 0.686392
-0.559401 13.619290 0.688347
-0.375599 13.593085 0.631591
-0.197860 13.560431 0.639079
-1.027942 13.836695 0.731842
-0.856209 13.834880 0.708638
-0.711019 13.759373 0.667947
-4.021906 14.101665 0.684069
-3.948881 14.203603 0.702835
-12.552271 14.968627 0.597645
-12.584830 15.051270 0.586792
-23.818138 20.947578 0.539956
-23.778294 21.054516 0.744344
-23.442339 21.848829 0.592848
-22.804216 23.185678 0.688627
-22.762732 23.321291 0.710114
-22.716516 23.437639 0.715935
-22.651299 23.503960 0.715467
-3.281067 6.013325 0.797666
-3.700724 6.292325 0.801833
-3.150383 6.320240 0.799804
-4.564725 6.721639 0.753057
-8.454764 8.259919 0.963772
-11.102768 9.555979 0.919815
-11.760596 9.806568 0.839749
-12.360781 10.094906 0.824813
-13.050513 10.413683 0.855370
-14.550514 11.016277 0.935011
-5.429104 11.222432 0.850847
-15.093550 11.397256 0.768226
-5.510375 11.378156 0.836301
-5.432354 11.389066 0.853223
-5.357927 11.610868 0.846036
1.462584 11.692707 0.915716
1.519830 11.712713 0.906258
-5.299154 11.780410 0.881361
-5.066711 11.916236 0.765577
0.829501 11.899270 0.803132
1.495561 11.789446 0.943927
1.549048 11.798957 0.907962
-5.663856 12.081048 0.864870
-0.277080 12.213527 0.851389
-0.286497 12.275754 0.895779
-0.143827 12.391188 0.896088
2.222175 12.415620 0.834427
2.416792 12.408926 0.908438
-0.108784 12.582662 0.911546
2.276402 12.573761 0.877552
-0.318512 13.493340 0.772091
-0.138998 13.462157 0.763826
-0.560261 13.617746 0.764543
-0.373364 13.552223 0.758848
-0.928800 13.901057 0.762638
-3.859854 14.329703 0.814181
-12.764243 14.859579 0.853475
-12.715329 14.771441 0.805814
-12.644044 15.070735 0.810884
-23.749748 21.178692 0.932515
-23.320030 22.011225 0.837203
-25.542620 6.340649 1.177356
-6.285153 7.315114 1.215605
-7.786644 7.964427 1.093442
-8.137204 8.108729 1.079284
-8.501637 8.277854 1.155852
-8.464928 8.263572 1.011660
-11.185791 9.581287 1.107093
-11.836589 9.836551 1.056180
-12.519528 10.148618 1.175446
-12.447511 10.128160 1.049151
-13.158804 10.451591 1.081562
-5.519040 11.313683 1.103550
-5.466845 11.471745 1.028143
-5.398661 11.632339 1.119356
-5.328806 11.833674 1.097032
2.901154 11.936909 1.078003
-5.634041 12.001972 1.136191
2.723345 12.229190 1.195393
2.838970 12.185022 1.192600
3.158313 12.155805 1.120407
-0.233510 12.321633 1.008061
1.929766 12.459315 1.236659
2.108449 12.407109 1.187524
2.416309 12.390593 1.162665
2.563459 12.315723 1.069036
1.949552 12.505642 1.196600
2.108497 12.574887 1.224245
-0.057898 13.443826 1.218378
-0.546140 13.630563 1.219471
-0.420107 13.575642 1.212630
-1.123626 13.967699 1.214248
-0.910029 13.873660 1.211835
-1.535500 14.149107 1.145079
-12.837358 14.583430 1.139750
-12.770981 14.919611 1.037670
-3.155294 14.954075 1.226153
-12.676421 15.048047 1.084643
-12.420300 15.162457 1.168166
-4.635270 15.416927 1.086956
-4.632028 15.532496 1.023698
-6.826962 16.167294 1.112433
-6.810812 16.260721 1.083089
-23.725842 21.227446 1.006280
-23.684196 21.315590 1.124700
-22.840305 23.151867 1.079836
-22.766468 23.311796 1.232448
-5.634360 7.141003 1.390892
-5.464203 7.070679 1.366657
-6.335782 7.318913 1.358904
-6.032160 7.250886 1.482288
-5.937173 7.268108 1.357071
-7.854717 7.985284 1.333781
-8.223180 8.140537 1.393335
-8.560368 8.298872 1.350190
-11.333585 9.608447 1.309981
-11.941284 9.878040 1.306548
-12.596174 10.182819 1.352374
-13.253580 10.490904 1.284322
-13.156566 10.444035 1.328677
-13.312613 10.506839 1.362345
-5.461132 11.231166 1.347791
-5.506033 11.392527 1.374972
-5.403996 11.647510 1.351497
-5.543593 11.951042 1.400272
-5.336435 11.805639 1.329926
-5.638950 12.015195 1.478802
2.707679 12.227293 1.294844
1.905417 12.426511 1.350489
2.148217 12.429011 1.386072
2.348263 12.414700 1.360764
2.575622 12.314377 1.324477
1.694534 12.695754 1.485903
1.912449 12.591852 1.416533
2.113962 12.581293 1.387340
1.216222 12.933179 1.441132
1.313831 12.897382 1.406499
2.044899 12.764174 1.481676
-0.043378 13.467187 1.394425
0.019287 13.428712 1.276409
-0.540582 13.607500 1.374800
-0.368386 13.603205 1.381197
-0.157821 13.558325 1.379572
-1.078556 13.938062 1.312693
-0.856578 13.834976 1.300638
-1.552827 14.029687 1.453648
-1.262314 14.035236 1.332760
-1.219629 14.009504 1.301171
-12.849895 14.706570 1.387267
-2.822234 14.734930 1.421985
-2.541481 14.573609 1.399949
-2.474119 14.561934 1.350310
-12.760390 14.967577 1.251096
-12.727910 14.997319 1.325517
-3.274563 14.974886 1.307538
-3.200979 14.955377 1.262671
-2.892295 14.775350 1.454788
-12.684467 15.084397 1.291885
-3.357971 15.019538 1.342094
-6.833364 16.895746 1.397160
-6.717868 16.894030 1.311603
-23.942410 20.697939 1.313223
-23.924932 20.836506 1.491870
-22.917915 22.969744 1.453997
-22.858047 23.143415 1.493044
-22.707504 23.449051 1.388137
-22.631405 23.621994 1.486619
-1.575848 5.232681 1.747039
-1.800299 5.356807 1.711329
-2.694621 5.741251 1.699550
-2.867776 5.800548 1.722895
-6.130115 7.234012 1.611137
-5.592755 7.156252 1.617969
-6.402054 7.339960 1.621655
-7.851393 7.949564 1.702463
-8.304797 8.164937 1.616522
-8.175410 8.106487 1.680898
-7.962454 8.018629 1.653676
-8.608103 8.323502 1.614047
-11.524510 9.670430 1.654635
-11.435866 9.646727 1.524589
-11.179559 9.554877 1.674950
-12.056038 9.927567 1.560348
-11.819005 9.801363 1.569003
-12.692387 10.220915 1.601657
-12.442663 10.096571 1.524327
-13.172783 10.437362 1.555519
-12.780177 10.255084 1.687680
-13.406652 10.547875 1.542960
-5.478831 11.212685 1.710705
-5.537854 11.370244 1.595919
-5.486120 11.490692 1.505353
-5.418560 11.636242 1.590632
-5.540501 11.934782 1.667925
-5.339019 11.808537 1.572387
2.956841 11.965925 1.572406
2.877381 12.153999 1.617773
3.032142 12.080399 1.744630
1.922900 12.476806 1.537390
2.135561 12.392186 1.565562
2.283937 12.448016 1.554764
1.662049 12.670230 1.641520
1.801377 12.619268 1.608881
2.116091 12.629184 1.596496
2.292583 12.522017 1.579464
1.164909 12.966710 1.531395
1.403597 12.809590 1.626217
1.541268 12.753419 1.528205
2.033299 12.764137 1.527866
1.099960 13.025499 1.538369
-0.017722 13.421165 1.504287
-0.566025 13.599611 1.611225
-0.375210 13.599230 1.602336
-0.214086 13.588689 1.537900
-1.169159 13.991529 1.717933
-0.847126 13.819406 1.642505
-0.737593 13.752983 1.623506
-2.142661 14.212317 1.714614
-1.814640 14.234033 1.708693
-1.606584 14.171787 1.633503
-1.377195 14.122455 1.697331
-2.095094 14.303375 1.633851
-12.830443 14.811672 1.581500
-12.645495 15.212117 1.509888
-4.637764 15.404504 1.611915
-7.327509 16.987200 1.652435
-7.103105 16.912886 1.562999
-6.851985 16.887840 1.584994
-6.735941 16.922932 1.563354
-7.627987 17.125259 1.743410
-7.389801 17.021948 1.667362
-23.862375 20.956972 1.649501
-22.789028 23.360325 1.518833
-22.506027 23.769806 1.540499
-22.443827 23.916367 1.609746
-1.814016 5.226482 1.996526
-1.574553 5.238518 1.790569
-1.407265 5.167556 1.827722
-1.896632 5.387178 1.866597
-1.653870 5.308168 1.858342
-2.880837 5.658314 1.980297
-3.337721 5.842351 1.975366
-3.025301 5.896178 1.861669
-2.825612 5.857524 1.820700
-2.655086 5.801796 1.830415
-6.138694 7.207294 1.875559
-5.918049 7.136359 1.938928
-5.544784 7.117773 1.828603
-6.501104 7.362556 1.917056
-6.401064 7.324941 1.861385
-6.211956 7.259168 1.902128
-5.671639 7.256449 1.794034
-7.866985 7.976924 1.847704
-8.367708 8.190395 1.878162
-8.098674 8.078532 1.821513
-8.890421 8.454828 1.917886
-8.634618 8.334548 1.837822
-9.139520 8.550797 1.902401
-8.989948 8.501887 1.979751
-11.633964 9.708575 1.837571
-11.282553 9.591690 1.857204
-11.215021 9.571104 1.751799
-12.147123 9.959311 1.821618
-11.913025 9.851910 1.800763
-12.649750 10.184990 1.905278
-12.260067 10.009313 1.924840
-13.291022 10.488251 1.766050
-12.859279 10.294318 1.843904
-13.574431 10.621295 1.831409
-13.394882 10.539526 1.814256
-5.510206 11.236846 1.834697
-5.530024 11.365232 1.855258
-5.488169 11.485639 1.874780
-5.453281 11.595961 1.873966
-5.522648 11.926088 1.927372
-5.363072 11.825165 1.812089
3.094079 12.195082 1.919915
2.722097 12.396173 1.997880
2.898638 12.297791 1.942398
1.498027 12.702015 1.899317
1.621509 12.645770 1.830681
2.072181 12.677245 1.853003
1.125095 12.946556 1.928728
0.473761 13.188231 1.830779
1.020122 13.035814 1.981443
-0.589939 13.602228 1.838445
-0.450055 13.538098 1.767135
-1.066911 13.925337 1.859120
-0.874506 13.825246 1.847174
-2.163203 14.216398 1.902240
-1.835727 14.245627 1.890817
-1.609870 14.157754 1.862363
-1.349314 14.114546 1.859633
-1.204941 14.007921 1.834920
-2.687460 14.489603 1.976871
-2.356150 14.335530 1.820083
-2.098444 14.374439 1.900955
-1.927078 14.338394 1.757164
-1.567470 14.256910 1.987935
-3.026806 14.630077 1.971158
-2.894515 14.743239 1.859309
-2.661171 14.544540 1.942907
-12.776232 14.934884 1.791627
-3.784400 14.961649 1.944160
-3.355867 14.855793 1.922994
-3.137611 14.858842 1.830654
-2.935450 14.756577 1.881420
-12.732296 15.044146 1.953934
-4.136419 15.178992 1.918850
-3.795350 15.116351 1.905334
-3.645171 15.140427 1.805923
-4.630432 15.414947 1.849482
-4.147662 15.275714 1.895521
-4.660592 15.550924 1.821728
-6.766849 16.221222 1.982217
-6.712168 16.166056 1.978482
-7.297810 16.946037 1.917420
-7.100173 16.872910 1.859859
-6.843510 16.834085 1.907690
-6.726231 16.884455 1.801691
-7.832375 17.215424 1.805240
-7.535609 17.056192 1.984837
-7.445158 17.030846 1.949291
-7.968190 17.296917 1.834088
-8.528321 17.625149 1.953231
-20.187679 17.949928 1.847204
-23.785866 21.131721 1.839499
-23.747732 21.250622 1.951869
-22.913593 22.981812 1.768725
-22.850674 23.110508 1.874741
-1.374201 4.969793 2.111522
-1.852550 5.175670 2.096965
-1.603427 5.081207 2.138083
-1.413065 5.034157 2.182424
-2.629230 5.492893 2.050445
-2.368197 5.431564 2.149779
-2.116950 5.316449 2.173729
-1.955690 5.281480 2.144271
-3.135520 5.723530 2.060566
-2.864956 5.661607 2.115802
-2.608666 5.533150 2.157643
-3.295835 5.882342 2.140460
-3.124000 5.815458 2.133147
-2.989187 5.756761 2.189473
-5.755153 6.998602 2.137891
-5.739345 6.984223 2.040565
-6.132381 7.188106 2.108204
-5.956482 7.111267 2.094645
-6.814476 7.465483 2.173053
-6.553641 7.382386 2.093473
-6.377697 7.307287 2.111001
-7.387352 7.723310 2.133616
-7.081893 7.591701 2.138159
-7.687824 7.870348 2.127873
-8.505645 8.243009 2.149227
-8.342195 8.186801 2.071373
-8.109251 8.067052 2.104437
-7.945232 8.008040 2.067131
-8.835495 8.408084 2.104334
-8.671823 8.343554 2.111008
-9.557904 8.735525 2.157074
-9.262751 8.602064 2.186268
-9.123564 8.551565 2.082489
-10.000761 8.948303 2.174869
-9.991209 8.928415 2.099835
-10.452621 9.166220 2.138609
-11.000229 9.405176 2.133204
-11.581900 9.685275 2.102593
-11.450104 9.623151 2.024552
-12.072449 9.914795 2.066993
-11.764470 9.771093 2.099102
-12.784434 10.237802 2.107804
-12.364416 10.058020 2.110252
-13.101205 10.386561 2.181988
-12.909204 10.303405 2.039399
-13.781304 10.722026 2.178532
-13.630090 10.641334 2.068573
-13.443775 10.553318 2.007657
-14.402678 10.995595 2.083725
-14.456216 11.012494 2.140741
-5.524687 11.229753 2.155144
-15.440650 11.463892 2.189208
-5.545722 11.380954 2.100792
-5.431780 11.619370 2.077165
-16.526806 11.955224 2.167436
-5.347668 11.800694 2.093583
2.949380 12.249421 2.054992
3.095570 12.179871 2.088835
2.692786 12.385926 2.158780
2.850811 12.302083 2.049688
-17.687712 12.524163 2.192044
1.077903 12.993650 2.024342
-0.786893 13.744721 2.057770
-0.051624 13.552971 2.049758
-1.311997 13.951941 2.042417
-1.124567 13.914659 2.034595
-0.890572 13.822718 2.032819
-2.181898 14.209207 2.002256
-1.583671 14.130654 2.047067
-1.311196 14.052338 2.008279
-2.712873 14.458586 2.002352
-2.072330 14.373413 2.052684
-1.911496 14.321340 2.094704
-1.579777 14.252162 2.001196
-12.868853 14.666158 2.082103
-2.349221 14.545865 2.189164
-2.173831 14.558603 2.227591
-6.147640 16.482569 2.225385
-6.800041 16.694746 2.084109
-6.560839 16.705368 2.159210
-6.689516 16.816624 2.060257
-8.311687 17.480742 2.155171
-8.133534 17.409794 2.122596
-7.909993 17.278324 2.069437
-8.560391 17.569761 2.212980
-20.195721 18.066351 2.022599
-20.087652 18.451788 2.209377
-24.112150 20.438656 2.026054
-24.036436 20.543720 2.166897
-23.705311 21.301220 2.010154
-22.770388 23.334633 2.030426
-22.713423 23.459084 2.106747
-22.646811 23.623308 2.191102
-1.240562 4.968596 2.293740
-1.773650 5.178223 2.313001
-2.375351 5.424049 2.384003
-2.146272 5.310306 2.395896
-1.931660 5.278676 2.348027
-3.032112 5.729231 2.461408
-2.838899 5.666045 2.371951
-2.631055 5.543953 2.375562
-3.671114 5.938501 2.441699
-3.324648 5.879416 2.372923
-3.130355 5.812208 2.382247
-2.989388 5.769250 2.258158
-6.245423 7.243261 2.254517
-6.835238 7.489060 2.296750
-6.591170 7.396244 2.351022
-6.332169 7.273408 2.348004
-7.422118 7.744459 2.260356
-7.140779 7.617181 2.317702
-6.872443 7.509244 2.424571
-7.778766 7.911701 2.386460
-7.719041 7.893662 2.253887
-7.469532 7.764149 2.390544
-8.364579 8.190099 2.364939
-8.122145 8.073660 2.335466
-8.862527 8.417138 2.343915
-8.580861 8.275647 2.331605
-9.334991 8.633164 2.344237
-9.168050 8.567157 2.347903
-10.093953 8.983907 2.345412
-9.641551 8.780892 2.366780
-10.590065 9.223289 2.390033
-11.153496 9.469492 2.400383
-11.659880 9.718424 2.401409
-12.252569 9.994922 2.365294
-12.181940 9.964081 2.255604
-11.892617 9.827584 2.314335
-12.533442 10.126481 2.355908
-12.381063 10.051678 2.334440
-12.931075 10.308149 2.352954
-13.652135 10.643493 2.310129
-14.642478 11.095848 2.387282
-5.549971 11.361814 2.347870
-15.560636 11.524973 2.357955
-5.436327 11.624655 2.339906
-5.361941 11.802174 2.355774
-16.769270 12.082845 2.495140
-16.707022 12.039018 2.382909
1.637865 12.736285 2.482806
1.574261 12.780126 2.463813
-2.573249 14.728650 2.298196
-2.330037 14.664676 2.368210
-2.155267 14.589462 2.335795
-12.839043 14.802170 2.267987
-2.834900 14.920506 2.430566
-2.614568 14.804813 2.428200
-4.100120 15.493961 2.344697
-3.883162 15.403862 2.448315
-4.576095 15.691133 2.342121
-4.401278 15.635273 2.475004
-4.227766 15.538492 2.404382
-5.255522 15.997682 2.385914
-5.102896 15.939606 2.327154
-4.888923 15.844242 2.463880
-5.524876 16.167282 2.311086
-5.446573 16.126337 2.364545
-5.869242 16.314907 2.429455
-6.784246 16.736214 2.348480
-6.653929 16.692259 2.301635
-6.393481 16.563313 2.307514
-25.463755 16.903605 2.342624
-7.329225 16.975060 2.364656
-7.099075 16.868116 2.386524
-6.944293 16.804703 2.425498
-7.762444 17.205666 2.334760
-7.535920 17.096025 2.317066
-8.044675 17.361952 2.381643
-8.434655 17.551466 2.494449
-9.266282 17.876610 2.360098
-8.964113 17.761354 2.296327
-20.239817 18.072968 2.463053
-9.578105 18.041124 2.254644
-20.029573 18.558584 2.338913
-23.877846 20.682947 2.347856
-22.540384 23.783224 2.265945
-22.370718 23.851297 2.299873
-22.344698 24.084354 2.369908
-22.230906 24.134401 2.389865
-2.514061 5.458727 2.636629
-2.346332 5.380607 2.642355
-2.169748 5.309726 2.595612
-3.042023 5.710572 2.601297
-2.854400 5.613567 2.613930
-2.688653 5.524999 2.637151
-3.750679 5.996901 2.669927
-3.625848 5.944106 2.601855
-3.353044 5.859198 2.621846
-3.203091 5.782454 2.630721
-4.139295 6.149317 2.693026
-3.903751 6.053070 2.659884
-4.321671 6.272264 2.686697
-6.619138 7.401067 2.578972
-6.401468 7.275764 2.626379
-7.263739 7.677697 2.683636
-7.202445 7.659491 2.547844
-6.928724 7.539546 2.606344
-7.861854 7.948988 2.598319
-7.548735 7.799405 2.601894
-8.508854 8.249957 2.557126
-8.368317 8.178862 2.590711
-8.182414 8.092470 2.604173
-9.044936 8.485034 2.529269
-8.866260 8.417969 2.607783
-8.647246 8.301418 2.594739
-9.509928 8.700152 2.670151
-9.376268 8.649650 2.589018
-9.154885 8.542000 2.612557
-9.793148 8.839729 2.640902
-9.715435 8.809319 2.502796
-10.262526 9.058310 2.663842
-10.178287 9.026201 2.524473
-10.777516 9.295079 2.687276
-10.710657 9.265994 2.575707
-11.289526 9.528525 2.626472
-11.834070 9.778100 2.628871
-12.405372 10.050925 2.563908
-13.171310 10.401116 2.653294
-13.828538 10.717469 2.536701
-13.956156 10.777098 2.708200
-14.863772 11.197544 2.667593
-5.540547 11.226468 2.616484
-5.536396 11.372994 2.594295
-15.849211 11.650509 2.679950
-15.669965 11.578440 2.500791
-5.505976 11.506315 2.551819
-5.439473 11.631069 2.599521
-16.887573 12.163733 2.693572
3.082828 12.183165 2.719935
-18.149567 12.718705 2.624827
1.610752 12.723484 2.589689
1.133024 12.957347 2.559875
1.492384 12.861031 2.714394
1.637192 12.781843 2.636827
1.775178 12.805918 2.619597
0.937733 13.126994 2.707746
1.048877 13.028481 2.611339
-2.380849 14.735332 2.517589
-2.938787 14.967470 2.675205
-2.626744 14.835108 2.639101
-2.469207 14.769446 2.622753
-3.546082 15.235622 2.665452
-3.374764 15.169824 2.601259
-3.155624 15.067494 2.620544
-12.620056 15.254560 2.725907
-4.017045 15.468311 2.510293
-3.641452 15.282406 2.669038
-4.568940 15.713118 2.545998
-5.157834 15.975654 2.566318
-5.651072 16.185312 2.524812
-6.274358 16.497353 2.562352
-6.122933 16.429615 2.513196
-5.930281 16.331726 2.658394
-6.799613 16.728842 2.734106
-6.602039 16.646381 2.668433
-6.409997 16.564281 2.605182
-25.346275 16.967777 2.541317
-7.823864 17.187252 2.672325
-7.638440 17.127766 2.624569
-7.454160 17.041590 2.539360
-8.285551 17.445843 2.501009
-25.027184 17.690630 2.513695
-8.822991 17.662830 2.630914
-24.966986 17.801956 2.743475
-9.081169 17.778986 2.702879
-11.168230 18.712397 2.716361
-10.906761 18.570972 2.669768
-14.113785 20.009125 2.740435
-23.631807 20.894081 2.583502
-23.519390 21.047392 2.717440
-22.798691 22.888971 2.564484
-22.698915 22.971037 2.633352
-22.590803 23.128675 2.733939
-2.610902 5.479764 2.809443
-2.401153 5.384041 2.872827
-3.061344 5.697179 2.810462
-2.842845 5.598400 2.867719
-2.690301 5.523144 2.899609
-3.753884 5.966046 2.944541
-3.600819 5.939717 2.878676
-3.418543 5.853503 2.898117
-3.236181 5.784975 2.879137
-4.144973 6.180586 2.839859
-3.873431 6.058587 2.873200
-4.841751 6.478822 2.966948
-4.581094 6.376199 2.893205
-4.348745 6.294304 2.852759
-6.782907 7.425504 2.889075
-7.329967 7.712709 2.871017
-7.061739 7.588651 2.932381
-6.987508 7.564201 2.766344
-7.963861 7.986081 2.817652
-7.643092 7.843261 2.844277
-8.342742 8.165946 2.849811
-8.115345 8.065856 2.830833
-9.041299 8.487846 2.866435
-8.848470 8.395348 2.825496
-8.682143 8.322416 2.914919
-9.594438 8.731400 2.810782
-9.350510 8.615093 2.915807
-9.183813 8.543102 2.803123
-9.950249 8.902493 2.909273
-9.673973 8.765292 2.951588
-10.357001 9.101227 2.831845
-10.875676 9.334652 2.839607
-11.413815 9.584188 2.824736
-12.054942 9.863075 2.919645
-11.937379 9.829512 2.797506
-12.664684 10.157486 2.904355
-13.346510 10.474791 2.872037
-13.424029 10.516525 2.987560
-14.116159 10.831680 2.860816
-15.029819 11.271822 2.859783
-5.534724 11.363068 2.778151
-16.015146 11.714003 2.833088
2.954460 12.223359 2.904301
3.080012 12.168580 2.912199
-17.184017 12.280281 2.943173
2.789999 12.303463 2.956805
2.153307 12.609261 2.903769
2.305641 12.537368 2.944207
1.452657 12.938080 2.916395
1.629841 12.861159 2.903805
0.901423 13.195473 2.908740
1.022252 13.140966 2.826982
0.684234 13.296995 2.947122
0.763369 13.259188 2.955507
-3.025977 14.997380 2.871207
-2.899196 14.949352 2.811366
-2.673517 14.848199 2.754359
-3.546199 15.239217 2.861492
-3.377497 15.158294 2.839390
-3.125410 15.047294 2.845106
-4.065757 15.464254 2.915222
-3.854799 15.374006 2.829587
-3.660345 15.284630 2.868669
-4.537314 15.669376 2.948602
-4.435374 15.623806 2.902373
-4.195649 15.522543 2.942029
-5.044038 15.905361 2.925411
-4.943391 15.863343 2.883100
-5.768386 16.228117 2.955323
-5.430660 16.097240 2.824524
-6.322450 16.494690 2.877485
-6.156274 16.420551 2.820581
-6.593922 16.603188 2.970554
-6.450349 16.550325 2.921092
-25.293819 17.105961 2.847073
-7.641572 17.114895 2.989035
-7.423660 17.027344 2.923099
-8.467583 17.478773 2.838378
-8.152263 17.334808 2.761221
-8.676823 17.557911 2.945202
-25.015104 17.822853 2.762938
-24.899467 17.910608 2.953238
-9.608229 17.974518 2.841873
-9.357087 17.881897 2.768327
-10.091961 18.181658 2.911928
-9.850540 18.076752 2.860594
-20.106857 18.354654 2.807701
-10.389997 18.292814 2.974167
-11.242381 18.760969 2.953007
-20.028421 19.159878 2.846725
-23.864746 20.212963 2.872355
-23.769966 20.267191 2.942834
-23.475540 21.142403 2.796648
-22.441719 23.364014 2.860652
-22.317757 23.589043 2.956131
-22.164175 23.686373 2.996513
-2.566654 5.456862 3.139641
-2.306078 5.367054 3.039939
-0.324917 5.402017 3.096686
-2.851072 5.593878 3.137477
-2.675853 5.504251 3.080281
-1.105358 5.647583 3.093965
-0.500801 5.569209 3.094325
-0.358658 5.601318 3.099432
-0.233629 5.605998 3.120251
-3.770866 5.975432 3.051331
-3.647749 5.955167 3.119505
-3.373810 5.842211 3.078853
-1.097298 5.854725 3.086352
-0.844740 5.883357 3.097919
-0.606210 5.870901 3.114939
-0.394224 5.785097 3.106437
-0.077393 5.950693 3.136417
-4.134364 6.167366 3.148285
-3.899156 6.055288 3.114301
-1.287029 6.008232 3.097030
-1.077642 6.146331 3.109149
-0.848495 6.139898 3.111238
-0.623438 6.138876 3.127610
-0.397794 6.121173 3.132402
-0.110451 6.146348 3.141358
0.036742 6.202681 3.167610
-4.787810 6.474814 3.095107
-4.611155 6.406595 3.124968
-4.405417 6.315175 3.109881
-0.877966 6.399076 3.123634
-0.628045 6.342792 3.122206
-0.368781 6.411382 3.140186
-0.131629 6.386413 3.137038
0.092711 6.417720 3.141745
-5.044888 6.557653 3.226032
-4.844290 6.512363 3.089622
-0.762072 6.525015 3.125584
-0.629602 6.593465 3.141603
-0.365945 6.629269 3.140735
-0.127835 6.622164 3.148681
0.134607 6.635166 3.152104
0.258332 6.687774 3.175173
-0.297352 6.853320 3.153117
-0.124691 6.860274 3.148020
0.113012 6.876715 3.148291
0.284426 6.939585 3.148399
-0.352599 7.170086 3.166751
-0.132732 7.117642 3.161761
0.337788 7.050983 3.175105
-0.575136 7.376630 3.159390
-0.370961 7.386273 3.163329
-0.157802 7.399993 3.176910
-7.398637 7.717117 3.084999
-7.180631 7.619292 3.163661
-0.509902 7.511209 3.158380
-0.363233 7.631564 3.168908
-0.117707 7.645157 3.184177
0.068533 7.667537 3.196797
0.348459 7.714958 3.213028
0.634216 7.654018 3.222337
-8.034631 7.991403 3.174892
-7.766258 7.904737 3.147969
-7.714507 7.869419 3.098067
-7.461257 7.759720 3.153235
-1.055341 7.811748 3.131278
-0.957134 7.930758 3.151947
-0.284578 7.831285 3.183011
-0.114812 7.881117 3.185516
0.121489 7.890845 3.190812
0.371796 7.888790 3.211809
0.603731 7.895051 3.215329
0.808711 7.910515 3.217946
-8.410263 8.193067 3.101376
-8.084679 8.042883 3.095456
-0.848592 8.118178 3.157088
-0.626028 8.192911 3.182162
-0.361724 8.150135 3.200447
-0.112765 8.119289 3.189605
0.125477 8.126007 3.186050
0.377258 8.150643 3.202762
0.640566 8.131830 3.217261
0.867316 8.146092 3.215820
-8.788303 8.364943 3.114088
-0.801298 8.352224 3.142219
-0.640822 8.395474 3.164365
-0.381953 8.382174 3.193264
-0.113684 8.391181 3.195779
0.129971 8.377692 3.191727
0.376669 8.374826 3.197472
0.623235 8.373690 3.206578
0.874616 8.386931 3.209546
1.046999 8.406082 3.221884
-9.585482 8.729926 3.100554
-9.176272 8.537477 3.096853
-0.618525 8.621806 3.154584
-0.364743 8.637657 3.179065
-0.129796 8.640345 3.199432
0.121504 8.630046 3.194051
0.378109 8.627249 3.205519
0.629825 8.631079 3.206698
0.875877 8.632760 3.209540
1.108126 8.644064 3.220454
-10.096184 8.970949 3.167421
-9.696617 8.779801 3.006401
-0.555084 8.865685 3.149088
-0.373706 8.875685 3.180274
-0.120702 8.882483 3.191219
0.128752 8.884695 3.198904
0.374678 8.882584 3.202998
0.627340 8.877666 3.214542
0.873433 8.884089 3.217433
1.120537 8.882382 3.222682
1.295667 8.919127 3.237629
-10.551290 9.176821 3.123647
-10.467303 9.145804 3.004744
-0.514879 9.060587 3.128190
-0.375501 9.120952 3.175544
-0.122257 9.135204 3.194974
0.128047 9.129389 3.203076
0.376491 9.131265 3.207639
0.621874 9.126056 3.219759
0.876424 9.134061 3.227182
1.125005 9.134075 3.225824
1.354077 9.143773 3.238758
-11.070487 9.413198 3.122697
-10.984344 9.379809 3.003591
-0.331289 9.368011 3.178878
-0.120977 9.378426 3.195761
0.128102 9.383904 3.208325
0.376588 9.377748 3.215625
0.623798 9.380129 3.220503
0.875805 9.379044 3.236796
1.126581 9.378349 3.239688
1.372858 9.378520 3.243971
-11.640709 9.675303 3.135005
-0.272512 9.573217 3.171973
-0.126849 9.632854 3.202303
0.129885 9.630327 3.212429
0.376008 9.631480 3.222916
0.626826 9.627667 3.230555
0.880711 9.627928 3.240820
1.378516 9.628895 3.249365
-12.144412 9.911171 3.063633
-0.089857 9.862574 3.195934
0.124120 9.881354 3.218658
0.379366 9.879910 3.229642
0.626739 9.875170 3.238385
0.879373 9.884205 3.244140
-12.853276 10.230170 3.123352
-0.025516 10.080888 3.181556
0.126809 10.134286 3.226195
0.376927 10.121630 3.234993
0.616060 10.113213 3.247583
0.165898 10.363136 3.214561
0.387571 10.373798 3.238820
0.616190 10.384450 3.245773
-13.557773 10.561002 3.113658
0.215509 10.592636 3.205680
0.386370 10.610540 3.246041
0.629302 10.631008 3.247954
-14.306000 10.934287 3.125894
-14.220130 10.887484 3.006332
0.422651 10.845975 3.209807
0.450390 11.095856 3.226734
0.607880 11.120934 3.238772
-15.180610 11.356295 3.065230
-14.721932 11.394155 3.146119
0.604289 11.358246 3.220766
0.662111 11.621906 3.249167
-16.153933 11.791112 3.010776
-14.431931 11.819914 3.141674
0.796232 11.894469 3.244602
0.916612 12.111781 3.189288
2.957136 12.215133 3.159467
3.073869 12.171784 3.120610
-17.543219 12.412160 3.206838
-17.438490 12.426518 3.245115
2.740225 12.319651 3.136141
2.843433 12.278590 3.142248
1.105619 12.573596 3.244921
1.941156 12.717144 3.153777
2.122758 12.615552 3.140693
2.299909 12.534731 3.132453
1.406926 12.951233 3.152236
1.606714 12.861011 3.133192
1.809610 12.781462 3.099607
0.861077 13.209652 3.140241
1.104010 13.114676 3.191930
1.275683 13.063789 3.180945
0.484337 13.371995 3.248868
0.638407 13.308904 3.148471
0.773034 13.265946 3.030354
-12.934475 14.607259 3.106972
-3.532014 15.213056 3.118120
-3.387218 15.153348 3.101931
-3.165026 15.054640 3.006443
-4.119370 15.473674 3.084049
-3.871487 15.367548 3.089281
-3.674967 15.286036 3.063178
-4.629095 15.710391 3.106546
-4.358543 15.589277 3.094826
-21.451248 15.901974 3.153818
-5.131370 15.940479 3.086133
-4.846462 15.800376 3.087847
-5.620345 16.153683 3.161594
-5.387130 16.056377 3.066712
-21.198143 16.442245 3.107946
-6.279876 16.465891 3.143402
-6.092079 16.380404 3.074691
-5.920638 16.304977 3.011116
-6.828852 16.721689 3.047576
-7.358309 16.947927 3.221503
-7.162518 16.865685 3.157621
-6.955525 16.771883 3.089961
-25.198484 17.212786 3.084702
-7.867336 17.220299 3.055473
-8.456200 17.486094 3.225157
-8.053739 17.308714 3.109379
-9.064382 17.702913 3.043833
-8.910952 17.655590 3.004866
-9.549255 17.939198 3.157581
-9.391911 17.887505 3.106973
-9.200125 17.852764 3.037244
-9.809912 18.101099 3.226363
-10.766460 18.468576 3.172423
-11.641778 18.873909 3.228459
-19.854324 19.409458 3.036104
-23.579800 20.398649 3.091872
-23.481400 20.439901 3.143633
-18.955278 21.364149 3.094109
-18.832041 21.622929 3.193224
-22.103041 23.873867 3.040042
-2.877424 5.610625 3.351459
-3.691748 5.964509 3.314235
-4.306935 6.243019 3.373416
-4.121359 6.156797 3.384010
-3.870604 6.046568 3.355928
-4.829432 6.491887 3.305110
-4.644468 6.417425 3.345292
-4.418842 6.295168 3.379764
-5.060772 6.595633 3.381486
-4.854210 6.508334 3.415188
-7.430275 7.736346 3.291234
-7.795657 7.922622 3.348527
-7.706409 7.885320 3.378445
-7.404766 7.795685 3.435458
-8.502071 8.239766 3.299995
-8.435201 8.174689 3.337596
-8.119555 8.064581 3.337294
-7.732079 8.042295 3.482950
-8.903754 8.420774 3.344963
-8.544780 8.260160 3.387152
-7.257980 8.319493 3.352046
-7.199017 8.369633 3.424279
-9.311829 8.603574 3.357341
-7.082823 8.655586 3.425128
-6.949020 8.728271 3.487531
-9.779142 8.813312 3.427845
-9.687280 8.784669 3.300728
-10.638891 9.211073 3.314720
-10.270510 9.048882 3.449706
-10.231102 9.021792 3.363658
-0.696773 9.173275 3.433201
-11.194877 9.467126 3.302410
-10.765609 9.272080 3.452475
-10.740744 9.253474 3.395324
-0.602589 9.373422 3.439041
1.545471 9.412692 3.254655
-11.769889 9.727383 3.302294
-11.350200 9.734051 3.494516
-11.234769 9.517985 3.439121
-0.441483 9.538680 3.325343
1.135811 9.686374 3.259959
1.661188 9.677782 3.265840
-12.301842 9.981358 3.275644
-11.780739 9.760152 3.381560
-11.675904 9.796879 3.434971
-11.074196 9.878390 3.433847
1.126006 9.935617 3.260982
1.397225 9.889168 3.265909
1.620265 9.887125 3.268573
1.799804 9.903769 3.279479
-12.290440 10.053605 3.440635
-11.820843 10.122873 3.475878
-11.130316 10.124252 3.471803
0.896409 10.174847 3.260921
1.124845 10.148397 3.263224
1.353287 10.126354 3.267725
1.640693 10.124454 3.269177
1.831002 10.131944 3.273737
-13.004085 10.306489 3.335779
-12.972221 10.352175 3.432517
-12.682663 10.385893 3.449179
-12.346273 10.417484 3.452595
-12.096869 10.461336 3.495420
0.741220 10.430187 3.264473
0.884605 10.368591 3.262067
1.139062 10.371167 3.267060
1.363433 10.388649 3.266313
1.654794 10.384717 3.272617
1.853320 10.400587 3.272012
2.039573 10.441113 3.286677
-13.683629 10.641775 3.320970
-13.351103 10.714485 3.435758
-12.953428 10.738696 3.430511
0.485835 10.723130 3.262462
0.603910 10.674267 3.266611
0.796387 10.691084 3.258834
1.143347 10.628076 3.267118
1.354374 10.627234 3.269143
1.620292 10.603693 3.271880
1.829983 10.565900 3.274930
2.084829 10.648961 3.299140
-14.451949 10.985474 3.256644
-12.802026 10.756378 3.448189
-12.530712 10.794536 3.486951
0.485113 10.889102 3.262885
0.641946 10.870657 3.261661
0.868180 10.887337 3.263974
1.102384 10.891940 3.267109
1.414068 10.858231 3.272187
1.623743 10.877903 3.294117
1.870443 10.880235 3.309215
2.118083 10.880260 3.301359
2.292784 10.937155 3.304791
-14.398363 11.059208 3.415487
0.493333 11.237548 3.259960
0.656297 11.129243 3.273599
0.873235 11.110523 3.264977
1.101511 11.118865 3.268574
1.376176 11.128496 3.284944
1.586372 11.067602 3.278596
1.876821 11.126307 3.301205
2.124320 11.128794 3.299503
2.363906 11.143884 3.309370
2.514307 11.247405 3.322421
-14.595991 11.442349 3.250560
-14.498936 11.493613 3.358085
0.656352 11.377109 3.268234
0.877170 11.384295 3.276604
1.124732 11.375755 3.279741
1.378612 11.376984 3.292257
1.624743 11.377478 3.299135
1.874795 11.375246 3.309206
2.125373 11.377316 3.313628
2.368084 11.378513 3.314065
2.576347 11.402369 3.326621
-14.398860 11.522917 3.413663
-14.224140 11.546635 3.454144
-13.868750 11.541772 3.434271
-13.623222 11.547432 3.433511
-13.392093 11.564219 3.456831
0.706620 11.604533 3.273393
0.875512 11.626112 3.286300
1.128742 11.627426 3.289255
1.375483 11.628368 3.298935
1.626519 11.628811 3.311771
1.874534 11.621739 3.316602
2.122465 11.628246 3.325840
2.374346 11.627919 3.328357
2.622633 11.623941 3.332764
2.795592 11.685119 3.347761
-16.426403 11.908133 3.263688
-14.366653 11.894753 3.293875
-14.174451 11.984056 3.465915
0.733772 11.777548 3.258056
0.893399 11.869442 3.291279
1.123366 11.877806 3.301125
1.373220 11.873615 3.304471
1.622263 11.878989 3.316840
1.869000 11.876798 3.328205
2.122498 11.875277 3.333411
2.371725 11.876073 3.339674
2.622783 11.872406 3.339635
2.865677 11.889060 3.349206
3.012285 11.985266 3.358612
-16.744902 12.010138 3.475403
0.942589 12.116214 3.298555
1.123363 12.127609 3.312108
1.380781 12.123380 3.313135
1.625223 12.123557 3.321779
1.875640 12.124295 3.335439
2.112334 12.118450 3.339070
2.369489 12.122080 3.344871
2.632724 12.115638 3.350811
2.870308 12.133113 3.351710
3.060364 12.103646 3.345222
0.983972 12.304840 3.297457
1.125477 12.382774 3.313235
1.375292 12.377333 3.323383
1.623947 12.365865 3.330310
1.887757 12.369650 3.342020
2.119426 12.376850 3.345747
2.372905 12.377705 3.351429
2.635941 12.329503 3.352898
2.821396 12.269765 3.314934
1.169514 12.623327 3.319197
1.369769 12.629338 3.332801
1.619351 12.621826 3.340155
1.892286 12.614810 3.340276
2.110635 12.573169 3.331028
2.311339 12.521699 3.305787
1.190228 12.875905 3.367570
1.370316 12.877727 3.324943
1.588662 12.826186 3.316086
1.756381 12.777694 3.317500
-9.081277 13.225425 3.445016
-8.973334 13.220567 3.436253
0.881467 13.186431 3.350642
1.120764 13.073942 3.384242
1.276090 13.005308 3.281427
-10.148363 13.452742 3.392362
-9.763956 13.448101 3.382646
-9.735428 13.486233 3.419231
-9.389182 13.464592 3.390125
-8.817069 13.253847 3.454557
0.416718 13.398834 3.422179
0.617518 13.305983 3.372329
-9.563259 13.656050 3.443364
-13.456459 13.947705 3.322944
-10.809706 13.847726 3.369129
-13.425841 14.015124 3.405003
-13.264698 14.353430 3.285001
-13.195380 14.423909 3.363254
-17.427614 14.954192 3.462613
-3.595354 15.231780 3.255343
-17.266762 15.371683 3.337299
-17.241543 15.446766 3.431437
-4.081453 15.443216 3.312073
-3.962224 15.390720 3.424700
-3.686294 15.267820 3.306755
-12.663329 15.583146 3.374337
-4.696308 15.741458 3.256693
-5.182070 15.960220 3.421348
-4.879311 15.815386 3.343405
-21.398024 16.015423 3.349699
-12.412724 16.187265 3.435260
-5.790978 16.220158 3.495861
-5.666645 16.178326 3.442464
-5.317528 16.019453 3.293129
-6.293825 16.459244 3.427068
-6.140547 16.390203 3.367323
-5.911089 16.291065 3.276753
-21.144533 16.593035 3.346978
-6.874598 16.729935 3.357504
-6.618227 16.616125 3.265898
-6.441988 16.539942 3.483884
-7.107300 16.837669 3.439595
-7.794680 17.153807 3.360821
-7.573400 17.057585 3.290040
-24.990396 17.272593 3.260028
-8.881619 17.641865 3.345546
-9.271600 17.794851 3.452720
-9.169709 17.759142 3.425001
-10.092156 18.198578 3.304560
-11.365014 18.405704 3.370540
-10.838944 18.490536 3.468096
-10.641335 18.437115 3.435492
-10.418256 18.330959 3.371175
-15.683488 18.656824 3.439487
-11.382856 18.686766 3.338960
-10.853076 18.515108 3.494640
-15.567914 18.896879 3.494525
-22.634344 20.422878 3.276372
-18.751627 21.844948 3.260300
-18.589384 21.957752 3.281686
-18.454206 22.086344 3.300375
-22.523354 22.628111 3.260908
-22.459541 22.681879 3.300223
-22.469784 22.759134 3.337427
-22.558270 23.054573 3.468838
-4.311951 6.244329 3.556349
-4.149489 6.171430 3.589600
-3.868253 6.089014 3.653263
-4.657438 6.419435 3.603902
-4.400866 6.328365 3.629106
-4.128144 6.339710 3.706433
-3.872901 6.425181 3.685490
-3.656109 6.473771 3.632219
-5.336366 6.731083 3.556131
-5.081860 6.657073 3.616125
-4.880450 6.593235 3.630439
-4.102437 6.599082 3.697022
-3.888747 6.621563 3.720132
-3.637403 6.626730 3.691541
-5.308688 6.778671 3.644068
-5.120893 6.904269 3.657047
-4.877972 6.903497 3.683120
-3.857906 6.803872 3.725530
-3.732608 6.903849 3.721519
-5.056852 7.176366 3.644837
-4.906974 7.127129 3.673302
-4.683414 7.199322 3.683545
-4.832513 7.328928 3.676396
-4.616858 7.357092 3.684052
-4.478318 7.478298 3.691180
-4.628750 7.606773 3.706084
-4.431382 7.515919 3.710801
-3.032418 7.847065 3.740224
-8.531185 8.240870 3.558322
-8.306736 8.135979 3.534090
-8.121070 8.092937 3.529479
-7.254205 8.137499 3.512580
-7.117813 8.248569 3.652714
-8.989741 8.477124 3.546911
-8.584753 8.282408 3.588675
-7.056830 8.457355 3.511838
-2.914125 8.323644 3.743093
-9.404903 8.673225 3.586394
-9.012567 8.505501 3.629151
-9.831938 8.871895 3.593907
-6.891650 8.778269 3.552530
-10.658447 9.228721 3.557273
-10.324199 9.098823 3.590768
-2.494861 9.110556 3.719332
-1.300574 9.238715 3.646564
-1.121319 9.179427 3.667282
-0.930059 9.156553 3.661855
-11.093955 9.456422 3.523639
-10.811664 9.324761 3.591664
-10.681021 9.271342 3.666186
-2.017688 9.461429 3.695044
-1.834627 9.448948 3.665942
-1.587381 9.407332 3.663449
-1.365599 9.374970 3.678384
-1.116854 9.382032 3.702269
-0.886659 9.397995 3.703312
-0.694866 9.423613 3.589112
-11.076377 9.575209 3.587473
-10.989687 9.667853 3.682219
-2.339794 9.711991 3.629568
-2.124179 9.653317 3.657032
-1.871710 9.629004 3.675062
-1.621741 9.628086 3.683002
-1.375362 9.623329 3.695024
-1.125751 9.631784 3.709574
-0.892490 9.590790 3.718828
-10.927831 9.892526 3.575317
-2.583306 9.892312 3.644562
-2.375140 9.875717 3.663030
-2.124088 9.870933 3.674321
-1.874483 9.883837 3.677562
-1.617846 9.874694 3.693608
-1.385346 9.830035 3.709939
-1.167345 9.775431 3.729065
-11.633742 10.159850 3.506490
-11.314231 10.197528 3.504266
-10.855755 10.137142 3.586704
-10.746287 10.227223 3.667192
-2.514664 10.015292 3.667204
-2.347389 10.108512 3.669599
-2.128031 10.136662 3.684450
-1.901919 10.075560 3.695131
-1.741237 10.057231 3.726071
-11.868354 10.492866 3.515899
-10.816654 10.279727 3.545959
-10.722137 10.295120 3.670500
-2.326773 10.297608 3.691929
-2.194737 10.274877 3.720466
-11.392412 10.556061 3.544510
-10.540363 10.699191 3.638095
-1.772233 10.599803 3.740766
-1.712371 10.703378 3.709251
-10.299230 11.217426 3.650002
-10.256261 11.264241 3.713500
-10.161388 11.493672 3.553591
-13.194209 11.672552 3.642959
-10.148178 11.554163 3.638005
-13.712584 11.922924 3.585707
-1.139592 11.821744 3.638384
-14.089134 12.051188 3.585213
-13.950454 12.000225 3.725512
-18.118502 12.687387 3.728965
-17.721724 12.560436 3.502447
0.736088 13.244490 3.681488
0.879112 13.184405 3.629601
1.013578 13.123152 3.548058
-9.077945 13.484201 3.652088
-8.875870 13.353196 3.537443
0.223542 13.481993 3.605894
0.364973 13.415168 3.635659
0.604815 13.302502 3.624204
-13.483594 13.748065 3.618472
-9.121560 13.523144 3.685150
-0.016144 13.591541 3.736163
0.097005 13.547838 3.682811
-13.481446 13.788316 3.664478
-9.791598 13.842884 3.595445
-9.069929 13.959612 3.632049
-0.505526 13.815769 3.730716
-0.432111 13.789581 3.637111
-13.367681 14.146357 3.551399
-10.583961 14.216971 3.504004
-9.024849 14.038376 3.676570
-8.963153 14.168045 3.745009
-13.055904 14.604795 3.551057
-8.702995 14.692273 3.640880
-8.610703 14.916796 3.700480
-17.420544 15.099541 3.649115
-12.585925 15.025600 3.653963
-8.436331 15.400445 3.590103
-17.159870 15.646416 3.667038
-12.646007 15.687617 3.527779
-8.314906 15.626240 3.654965
-8.239825 15.741241 3.680261
-12.566380 15.886989 3.672263
-8.207592 15.801282 3.692788
-21.332375 16.173479 3.591937
-8.367820 16.169432 3.728777
-5.437139 16.069229 3.604870
-12.333266 16.373459 3.526798
-8.925938 16.439934 3.701914
-8.279142 16.295994 3.739412
-8.212995 16.419773 3.747588
-6.252694 16.441795 3.688478
-6.075263 16.356575 3.614744
-5.943857 16.304897 3.559482
-21.103456 16.697956 3.500281
-12.271885 16.541523 3.635325
-12.214767 16.661953 3.669891
-9.555758 16.702034 3.732764
-9.434770 16.731014 3.721976
-7.949743 16.684231 3.714355
-6.827589 16.696121 3.632437
-6.643236 16.624878 3.561549
-16.514238 16.789679 3.524455
-16.476803 16.931143 3.639577
-12.107137 16.866243 3.652824
-9.886618 16.869549 3.656369
-9.308384 16.838612 3.724310
-9.243262 16.965178 3.736581
-7.978983 16.853781 3.735453
-7.378783 16.970390 3.534339
-6.962901 16.761028 3.683641
-16.494141 17.014393 3.634238
-11.974155 17.197124 3.718036
-9.171713 17.122444 3.744842
-7.874290 17.165688 3.705789
-7.715787 17.128998 3.651088
-16.333143 17.438299 3.525332
-11.888034 17.386496 3.737712
-8.355839 17.437437 3.537044
-16.273071 17.534685 3.593740
-16.232311 17.648695 3.666171
-11.791759 17.570698 3.745528
-11.680944 17.633717 3.732104
-9.028066 17.559834 3.741223
-8.878880 17.604961 3.698731
-8.658098 17.546535 3.631148
-16.180119 17.768806 3.634521
-11.263602 17.826012 3.692247
-11.227089 17.948669 3.684232
-10.092333 17.853354 3.648777
-9.618134 17.961697 3.546854
-15.980141 18.149054 3.501942
-11.197479 18.135721 3.671611
-10.116587 18.054604 3.672002
-9.910856 18.055641 3.623678
-9.739704 18.010353 3.579291
-15.879680 18.385561 3.607024
-11.215904 18.378187 3.660896
-15.809618 18.554161 3.606139
-11.275417 18.569830 3.558211
-11.137578 18.568460 3.591548
-20.037893 19.005974 3.650392
-19.967768 19.129223 3.744307
-15.442636 19.146332 3.532784
-15.373029 19.376169 3.554057
-19.734163 19.658186 3.584065
-15.294424 19.599445 3.561811
-19.669352 19.859905 3.713762
-3.776682 6.646240 3.750080
-4.615265 7.676743 3.851863
-4.430442 7.580156 3.863376
-3.075884 7.643292 3.815998
-2.989100 7.731555 3.854944
-4.849464 7.789612 3.929259
-3.024276 7.876295 3.792227
-2.934539 7.876415 3.887031
-3.034359 8.061935 3.787097
-2.840213 8.134714 3.876435
-8.564524 8.319062 3.771943
-2.820822 8.357280 3.826545
-2.690259 8.397817 3.902353
-2.596323 8.624065 3.890001
-9.901381 8.930142 3.765563
-2.583918 8.874319 3.850108
-2.467618 8.858962 3.943883
-10.534995 9.207067 3.930115
-10.424572 9.169684 3.796566
-2.516946 9.152536 3.811199
-2.408478 9.144711 3.880790
-11.003954 9.440811 3.924500
-10.926009 9.378978 3.822823
-10.727828 9.301461 3.757448
-2.388506 9.363308 3.845548
-2.158489 9.354907 3.866651
-1.945474 9.286119 3.860643
-11.028953 9.598031 3.816792
-10.973564 9.703208 3.815372
-1.031895 9.739981 3.871824
-0.889719 9.673862 3.858282
-10.905233 9.891332 3.832227
-1.561059 9.977682 3.892761
-1.379608 9.898738 3.846801
-1.149969 9.795508 3.879050
-10.808284 10.097084 3.843339
-2.045931 10.226437 3.851260
-1.868048 10.157276 3.896876
-1.681467 10.034276 3.902290
-10.704607 10.325386 3.838568
-2.632517 10.459537 3.885915
-2.351861 10.359552 3.880792
-2.130708 10.314886 3.893591
-1.872835 10.384043 3.912497
-1.735932 10.483263 3.968874
-1.806499 10.610809 3.871278
-1.679552 10.654603 3.940668
-10.375006 10.970358 3.794606
-1.773406 10.790766 3.889034
-1.639200 10.875426 3.915395
-1.487358 10.982846 3.987559
-1.585967 11.119562 3.886640
-1.460916 11.147906 3.957967
-10.177242 11.412339 3.912477
-1.539593 11.322117 3.888201
-1.396407 11.399545 3.936203
-1.246843 11.490822 3.956612
-10.077763 11.670583 3.788266
-1.353498 11.639623 3.898728
-1.200680 11.648731 3.969706
-1.305926 11.784034 3.900386
-1.163993 11.881806 3.932364
-14.161616 12.171069 3.791930
-13.973535 12.030615 3.775795
-1.122814 12.121249 3.939537
-0.977951 12.198048 3.981574
-14.167988 12.276075 3.962669
-1.059827 12.361612 3.944649
-0.932653 12.391874 3.973651
-1.003107 12.514404 3.947030
-0.898153 12.621042 3.958209
-1.405350 12.969951 3.961369
-1.114240 12.936097 3.973859
-0.875295 12.882463 3.978162
-0.721579 12.902711 3.983007
-1.583565 13.040876 3.965487
-1.338545 13.140468 3.959702
-1.129862 13.133835 3.968555
-0.889773 13.132174 3.976515
-0.649864 13.136451 3.937531
0.719259 13.240108 3.895005
0.847186 13.170719 3.888965
-9.074264 13.453999 3.963969
-8.876826 13.353815 3.868631
-1.330049 13.348272 3.957325
-1.122729 13.369185 3.970541
-0.894655 13.377552 3.973982
-0.626861 13.383495 3.975693
0.184258 13.477998 3.889503
0.366942 13.402172 3.896901
0.590111 13.299177 3.884142
-9.169479 13.661310 3.788707
-1.296131 13.619414 3.967299
-1.096903 13.603076 3.977144
-0.877023 13.627748 3.981459
-0.588148 13.568123 3.994500
-0.398604 13.705737 3.970628
-0.122761 13.620021 3.893368
0.073893 13.540565 3.887160
-13.487793 13.915009 3.804274
-9.089008 13.846917 3.905727
-1.262304 13.773203 3.969747
-1.110507 13.860426 3.980774
-0.835192 13.894072 3.960179
-0.634862 13.841591 3.923483
-13.448275 14.049113 3.946467
-10.083539 14.042733 3.755717
-8.858153 14.370133 3.837298
-8.773783 14.556589 3.911813
-8.719190 14.676061 3.952809
-12.774298 15.249187 3.813921
-12.739464 15.163540 3.753201
-8.533985 15.085129 3.752791
-8.484653 15.223526 3.803035
-17.321785 15.312262 3.910297
-12.801760 15.408860 3.924228
-8.403559 15.373627 3.852000
-12.763008 15.517101 3.994505
-12.695757 15.611000 3.833603
-8.292139 15.605521 3.910753
-8.241011 15.719947 3.917358
-8.165442 15.896763 3.918242
-12.508348 16.035452 3.766812
-12.451777 16.147709 3.826740
-8.068923 16.117743 3.898112
-7.994532 16.227306 3.967294
-5.888332 16.239819 3.861338
-5.676403 16.129707 3.910537
-21.271145 16.310265 3.788555
-12.351862 16.361584 3.938356
-9.146341 16.476419 3.755871
-7.945398 16.356342 3.993694
-6.381835 16.469521 3.837344
-6.143493 16.358416 3.855516
-5.926876 16.280651 3.826269
-8.128596 16.588495 3.752182
-7.817420 16.622950 3.976405
-6.584557 16.538973 3.893816
-6.443198 16.517002 3.767394
-12.124996 16.883003 3.829278
-8.036600 16.963236 3.754473
-7.754239 16.757736 3.968726
-7.679394 16.901356 3.947108
-7.404114 16.943159 3.849635
-7.169126 16.860542 3.761497
-16.470718 17.137104 3.780221
-12.035493 17.054817 3.758589
-8.042399 17.086334 3.760701
-16.393944 17.320114 3.934957
-9.084101 17.392801 3.751655
-16.129673 17.882931 3.753584
-16.021534 18.088791 3.870024
-15.982461 18.188181 3.889942
-15.899565 18.380692 3.905241
-20.147301 18.642277 3.961628
-15.802879 18.594656 3.971125
-15.680392 18.831240 3.755729
-19.888317 19.349827 3.894294
-19.670958 19.829239 3.857191
-19.573883 20.089371 3.889718
-19.493067 20.225864 3.873933
-19.407839 20.359558 3.925369
-4.673014 7.710588 4.014515
-2.892062 7.911484 4.123322
-2.815173 8.107658 4.157142
-2.748576 8.210312 4.023434
-2.689442 8.372462 4.122180
-2.576095 8.621270 4.129713
-2.521515 8.772491 4.139141
-2.452753 8.894780 4.120693
-10.597955 9.239337 4.025616
-2.362259 9.104360 4.128091
-2.170930 9.158179 4.143133
-11.038334 9.476743 4.011343
-10.968992 9.405296 4.085483
-10.705754 9.281473 4.161046
-11.033002 9.541664 4.138585
-10.967553 9.699524 4.003428
-1.044673 9.735352 4.146882
-0.926515 9.697315 4.079515
-10.882710 9.838688 4.050565
-1.571400 9.977941 4.121409
-1.362760 9.885313 4.122076
-1.164835 9.797362 4.128981
-10.813590 10.112736 4.006072
-10.667627 10.219711 4.108053
-1.844172 10.162036 4.125980
-1.697403 10.035561 4.110606
-10.651686 10.439989 4.026965
-2.596765 10.459631 4.119948
-2.457263 10.399567 4.095764
-1.788638 10.335102 4.118339
-1.727429 10.456579 4.124777
-10.573593 10.505359 4.115791
-2.833593 10.553500 4.123913
-2.733238 10.519698 4.229321
-1.651917 10.620351 4.123736
-1.550218 10.851963 4.120566
-1.494874 10.971007 4.164228
-1.413214 11.146147 4.113170
-1.309806 11.351681 4.080289
-1.239946 11.479203 4.108860
-1.161898 11.657354 4.112570
-1.072099 11.876231 4.136889
-14.179075 12.174897 4.029734
-1.010480 12.010793 4.125566
-0.952718 12.140152 4.101058
-14.280097 12.258848 4.166951
-0.845854 12.389135 4.120230
-0.777878 12.569719 4.072498
-0.715829 12.657304 4.111245
-1.520641 12.961991 4.225814
-1.395999 12.900237 4.096829
-0.639688 12.878272 4.104127
-1.828488 13.127920 4.185417
-1.666947 13.044422 4.118068
-0.548485 13.081767 4.105574
-0.487279 13.207783 4.108792
0.645045 13.194607 4.131965
0.782507 13.124804 4.042112
-0.415914 13.380812 4.113901
-0.030882 13.494096 4.126697
0.126961 13.445836 4.107662
0.372621 13.336434 4.102466
0.558686 13.272188 4.040691
-9.144722 13.638348 4.101123
-0.800112 13.563903 4.001233
-0.340292 13.581187 4.087587
-0.114675 13.557972 4.104405
-9.048137 13.875367 4.144114
-0.867931 13.828410 4.004002
-0.743337 13.842149 4.006316
-9.009568 14.023783 4.003702
-8.947733 14.150710 4.065320
-8.816418 14.433272 4.184343
-8.636247 14.876673 4.012925
-8.570164 15.016100 4.048307
-12.745397 15.482268 4.164954
-12.699328 15.648838 4.050556
-8.258835 15.657056 4.179628
-8.232035 15.724292 4.133368
-12.584112 15.890038 4.145457
-8.165073 15.890122 4.231340
-12.512974 16.018635 4.144012
-12.457770 16.109795 4.202995
-6.574397 16.495808 4.109822
-6.396383 16.429426 4.096170
-6.099576 16.285000 4.015375
-12.270608 16.556581 4.016568
-12.213292 16.682528 4.084864
-7.050478 16.743807 4.176538
-6.864405 16.645035 4.094290
-6.727284 16.588572 4.078519
-12.119051 16.880199 4.155975
-7.192239 16.815788 4.071061
-12.034542 17.089453 4.041971
-11.979288 17.200407 4.070289
-11.897657 17.376211 4.097634
-16.286476 17.568024 4.109669
-16.225000 17.555904 4.129938
-11.807541 17.548973 4.131595
-11.663393 17.610210 4.117603
-15.663791 18.903236 4.041638
-15.582236 19.071121 4.067526
-15.493578 19.237297 4.084491
-15.396983 19.400999 4.090822
-19.777672 19.603310 4.051866
-15.337189 19.577381 4.100641
-19.308884 20.597950 4.002663
-19.206961 20.766027 4.046576
-2.889877 7.935747 4.317324
-2.787044 8.123801 4.314640
-2.723500 8.196621 4.346412
-2.658445 8.392449 4.342091
-2.560024 8.638877 4.336208
-2.471058 8.613199 4.365593
-2.507944 8.772840 4.311490
