# .PCD v0.7 - Point Cloud Data file format
VERSION 0.7
FIELDS x y z
SIZE 4 4 4
TYPE F F F
COUNT 1 1 1
WIDTH 1771
HEIGHT 1
VIEWPOINT 0 0 0 1 0 0 0
POINTS 1771
DATA ascii
0.575000 4.075000 2.325000
0.575000 4.075000 2.375000
0.725000 4.125000 2.375000
0.875000 4.075000 1.675000
0.875000 4.125000 1.625000
0.875000 4.125000 1.675000
0.875000 4.075000 1.725000
1.075000 4.075000 2.125000
1.225000 4.075000 2.175000
1.325000 4.075000 2.125000
1.325000 4.075000 2.175000
1.475000 4.125000 2.125000
1.475000 4.125000 2.175000
1.225000 4.075000 2.225000
1.325000 4.075000 2.275000
1.475000 4.075000 2.275000
1.475000 4.125000 2.225000
1.475000 4.125000 2.275000
1.475000 4.075000 2.325000
1.475000 4.075000 2.375000
0.075000 3.525000 2.425000
0.075000 3.575000 2.475000
0.075000 3.575000 2.525000
0.075000 3.575000 2.575000
0.225000 3.575000 2.425000
0.225000 3.575000 2.475000
0.225000 3.575000 2.525000
0.225000 3.575000 2.575000
0.075000 3.575000 2.625000
0.075000 3.575000 2.675000
0.075000 3.575000 2.725000
0.075000 3.575000 2.775000
0.225000 3.575000 2.625000
0.225000 3.575000 2.675000
0.225000 3.575000 2.775000
0.175000 3.675000 2.575000
0.375000 3.625000 2.425000
0.375000 3.625000 2.475000
0.375000 3.625000 2.525000
0.175000 3.675000 2.625000
0.175000 3.625000 2.675000
0.175000 3.625000 2.725000
0.175000 3.625000 2.775000
0.375000 3.625000 2.625000
0.325000 3.675000 2.625000
0.325000 3.625000 2.675000
0.375000 3.625000 2.675000
0.325000 3.675000 2.675000
0.375000 3.625000 2.725000
0.325000 3.625000 2.775000
0.375000 3.625000 2.775000
0.075000 3.975000 2.675000
0.075000 3.975000 2.725000
0.075000 3.975000 2.775000
0.125000 3.925000 2.725000
0.225000 3.975000 2.775000
0.525000 3.625000 2.425000
0.525000 3.625000 2.475000
0.575000 3.625000 2.525000
0.525000 3.625000 2.575000
0.625000 3.625000 2.475000
0.775000 3.675000 2.425000
0.775000 3.675000 2.475000
0.625000 3.625000 2.525000
0.625000 3.625000 2.575000
0.775000 3.675000 2.525000
0.775000 3.675000 2.575000
0.425000 3.675000 2.675000
0.525000 3.625000 2.625000
0.525000 3.625000 2.675000
0.425000 3.675000 2.725000
0.525000 3.625000 2.725000
0.625000 3.625000 2.625000
0.625000 3.675000 2.675000
0.775000 3.675000 2.625000
0.775000 3.675000 2.675000
0.625000 3.675000 2.725000
0.625000 3.675000 2.775000
0.775000 3.675000 2.725000
0.075000 3.425000 2.875000
0.075000 3.575000 2.825000
0.075000 3.575000 2.875000
0.075000 3.575000 2.925000
0.225000 3.575000 2.825000
0.225000 3.575000 2.975000
0.125000 3.575000 3.025000
0.125000 3.575000 3.075000
0.125000 3.575000 3.125000
0.125000 3.575000 3.175000
0.575000 3.425000 2.875000
0.175000 3.625000 2.825000
0.175000 3.625000 2.875000
0.125000 3.625000 2.925000
0.325000 3.625000 2.825000
0.375000 3.625000 2.825000
0.325000 3.625000 2.875000
0.375000 3.625000 2.875000
0.325000 3.625000 2.925000
0.375000 3.625000 2.925000
0.325000 3.625000 2.975000
0.375000 3.625000 2.975000
0.075000 3.975000 2.825000
0.075000 3.975000 2.875000
0.075000 3.975000 2.925000
0.075000 3.975000 2.975000
0.225000 3.975000 2.825000
0.225000 3.625000 3.025000
0.325000 3.625000 3.025000
0.325000 3.625000 3.075000
0.325000 3.625000 3.125000
0.325000 3.625000 3.175000
0.075000 3.975000 3.025000
0.075000 3.975000 3.075000
0.075000 3.975000 3.125000
0.075000 3.975000 3.175000
0.225000 3.975000 3.025000
0.225000 3.975000 3.175000
0.425000 3.625000 2.825000
0.425000 3.625000 2.875000
0.425000 3.625000 2.925000
0.425000 3.625000 2.975000
0.625000 3.675000 2.825000
0.425000 3.625000 3.025000
0.425000 3.625000 3.075000
0.475000 3.625000 3.125000
0.475000 3.625000 3.175000
0.575000 3.675000 3.175000
0.725000 3.675000 3.175000
0.975000 3.525000 2.575000
0.975000 3.275000 2.625000
1.025000 3.225000 2.675000
1.025000 3.525000 2.775000
0.875000 3.675000 2.475000
0.875000 3.675000 2.525000
0.875000 3.675000 2.575000
0.875000 3.675000 2.625000
1.075000 3.475000 2.875000
1.075000 3.475000 2.925000
1.075000 3.525000 2.925000
1.125000 3.525000 3.125000
0.875000 3.675000 3.125000
0.875000 3.675000 3.175000
1.025000 3.675000 3.175000
0.075000 4.025000 2.475000
0.075000 4.025000 2.525000
0.075000 4.025000 2.575000
0.225000 4.075000 2.475000
0.225000 4.025000 2.525000
0.225000 4.025000 2.575000
0.375000 4.075000 2.525000
0.375000 4.025000 2.575000
0.375000 4.075000 2.575000
0.075000 4.025000 2.625000
0.225000 4.025000 2.625000
0.225000 4.025000 2.675000
0.375000 4.025000 2.625000
0.375000 4.025000 2.675000
0.225000 4.025000 2.725000
0.375000 4.025000 2.725000
0.525000 4.075000 2.425000
0.575000 4.075000 2.425000
0.525000 4.075000 2.475000
0.575000 4.075000 2.475000
0.525000 4.025000 2.525000
0.575000 4.075000 2.525000
0.525000 4.025000 2.575000
0.575000 4.075000 2.575000
0.675000 4.075000 2.475000
0.725000 4.125000 2.425000
0.725000 4.125000 2.475000
0.675000 4.075000 2.575000
0.775000 4.075000 2.525000
0.775000 4.075000 2.575000
0.725000 4.275000 2.425000
0.725000 4.275000 2.525000
0.525000 4.025000 2.625000
0.575000 4.075000 2.625000
0.525000 4.025000 2.675000
0.525000 4.025000 2.725000
0.525000 4.025000 2.775000
0.675000 4.025000 2.625000
0.675000 4.075000 2.625000
0.625000 4.075000 2.675000
0.725000 4.125000 2.625000
0.675000 4.025000 2.725000
0.675000 4.025000 2.775000
0.525000 4.425000 2.575000
0.775000 4.475000 2.575000
0.775000 4.525000 2.575000
0.775000 4.475000 2.625000
0.675000 4.525000 2.675000
0.775000 4.525000 2.625000
0.775000 4.575000 2.775000
0.775000 4.625000 2.675000
0.125000 4.075000 2.825000
0.125000 4.075000 2.875000
0.125000 4.075000 2.925000
0.125000 4.025000 2.975000
0.225000 4.025000 2.825000
0.375000 4.025000 2.825000
0.375000 4.025000 2.875000
0.375000 4.025000 2.925000
0.325000 4.075000 2.925000
0.325000 4.025000 2.975000
0.375000 4.025000 2.975000
0.125000 4.025000 3.025000
0.125000 4.025000 3.075000
0.125000 4.025000 3.125000
0.125000 4.025000 3.175000
0.225000 4.025000 3.075000
0.325000 4.025000 3.025000
0.375000 4.025000 3.025000
0.325000 4.025000 3.075000
0.375000 4.025000 3.075000
0.225000 4.025000 3.125000
0.325000 4.025000 3.125000
0.375000 4.025000 3.125000
0.325000 4.025000 3.175000
0.375000 4.025000 3.175000
0.525000 4.025000 2.825000
0.525000 4.025000 2.875000
0.525000 4.075000 2.875000
0.475000 4.075000 2.975000
0.525000 4.075000 2.925000
0.525000 4.075000 2.975000
0.675000 4.025000 2.825000
0.675000 4.075000 2.825000
0.675000 4.075000 2.875000
0.675000 4.075000 2.925000
0.675000 4.075000 2.975000
0.675000 4.275000 2.875000
0.475000 4.075000 3.025000
0.475000 4.025000 3.075000
0.525000 4.075000 3.025000
0.525000 4.075000 3.075000
0.475000 4.025000 3.125000
0.475000 4.025000 3.175000
0.525000 4.075000 3.125000
0.675000 4.075000 3.025000
0.675000 4.075000 3.075000
0.675000 4.075000 3.125000
0.775000 4.575000 2.825000
0.775000 4.575000 2.875000
0.625000 4.425000 2.925000
0.625000 4.575000 2.925000
0.925000 4.025000 2.575000
0.825000 4.075000 2.625000
0.825000 4.075000 2.675000
0.825000 4.075000 2.725000
0.825000 4.075000 2.775000
0.825000 4.475000 2.725000
0.825000 4.075000 2.825000
0.825000 4.075000 2.875000
0.975000 4.075000 2.875000
0.975000 4.125000 2.825000
0.825000 4.075000 2.925000
0.825000 4.075000 2.975000
0.975000 4.175000 2.925000
0.975000 4.225000 2.925000
0.975000 4.325000 2.975000
0.825000 4.075000 3.025000
0.975000 4.075000 3.025000
0.825000 4.325000 3.075000
0.975000 4.325000 3.075000
1.025000 4.375000 3.125000
1.025000 4.325000 3.175000
1.025000 4.375000 3.175000
1.025000 4.525000 3.075000
1.025000 4.525000 3.125000
1.625000 3.525000 1.625000
1.625000 3.575000 1.625000
1.675000 3.575000 1.625000
1.675000 3.525000 1.675000
1.725000 3.525000 1.625000
1.775000 3.575000 1.625000
1.725000 3.525000 1.675000
1.775000 3.575000 1.675000
1.675000 3.575000 1.725000
1.675000 3.575000 1.775000
1.725000 3.525000 1.725000
1.775000 3.575000 1.725000
1.775000 3.575000 1.775000
1.875000 3.575000 1.725000
1.875000 3.575000 1.775000
1.925000 3.575000 1.775000
1.675000 3.575000 1.825000
1.675000 3.575000 1.875000
1.775000 3.575000 1.825000
1.775000 3.425000 1.925000
1.775000 3.425000 1.975000
1.775000 3.525000 1.925000
1.875000 3.425000 1.875000
1.875000 3.475000 1.875000
1.925000 3.475000 1.875000
1.825000 3.575000 1.825000
1.825000 3.525000 1.875000
1.825000 3.575000 1.875000
1.925000 3.575000 1.825000
1.925000 3.525000 1.875000
1.925000 3.575000 1.875000
1.875000 3.425000 1.925000
1.825000 3.425000 1.975000
1.925000 3.425000 1.925000
1.975000 3.425000 1.925000
1.975000 3.425000 1.975000
1.875000 3.575000 1.925000
1.975000 3.575000 1.925000
2.025000 3.575000 1.775000
2.225000 3.575000 1.675000
2.275000 3.475000 1.725000
2.275000 3.575000 1.725000
2.275000 3.575000 1.775000
2.025000 3.575000 1.825000
2.025000 3.575000 1.875000
2.125000 3.575000 1.875000
2.075000 3.425000 1.925000
2.075000 3.475000 1.925000
2.075000 3.475000 1.975000
2.175000 3.425000 1.925000
2.125000 3.525000 1.925000
2.125000 3.575000 1.925000
2.275000 3.575000 1.825000
2.275000 3.575000 1.875000
2.325000 3.575000 1.875000
2.275000 3.425000 1.925000
2.275000 3.475000 1.925000
2.275000 3.425000 1.975000
2.325000 3.425000 1.925000
2.375000 3.425000 1.925000
2.325000 3.475000 1.925000
2.325000 3.475000 1.975000
2.225000 3.525000 1.925000
2.275000 3.575000 1.925000
2.325000 3.525000 1.925000
2.375000 3.575000 1.925000
1.775000 3.625000 1.625000
1.875000 3.625000 1.625000
1.875000 3.625000 1.675000
1.625000 3.925000 1.625000
1.625000 3.975000 1.625000
1.675000 3.975000 1.625000
1.625000 3.975000 1.675000
1.675000 3.975000 1.675000
1.725000 3.925000 1.625000
1.725000 3.925000 1.675000
1.725000 3.975000 1.675000
1.775000 3.975000 1.675000
1.625000 3.975000 1.725000
1.675000 3.975000 1.725000
1.625000 3.975000 1.775000
1.675000 3.975000 1.775000
1.725000 3.975000 1.725000
1.725000 3.975000 1.775000
1.825000 3.975000 1.625000
1.825000 3.975000 1.675000
1.825000 3.975000 1.725000
1.875000 3.975000 1.725000
1.825000 3.975000 1.775000
1.875000 3.625000 1.875000
1.925000 3.725000 1.875000
1.975000 3.625000 1.925000
1.725000 3.975000 1.825000
1.775000 3.975000 1.825000
1.725000 3.975000 1.875000
1.675000 3.825000 1.925000
1.775000 3.825000 1.925000
1.875000 3.925000 1.825000
1.825000 3.975000 1.825000
1.875000 3.925000 1.875000
1.825000 3.975000 1.875000
1.925000 3.975000 1.825000
1.925000 3.975000 1.875000
1.925000 3.825000 1.925000
1.925000 3.875000 1.925000
1.925000 3.875000 1.975000
1.825000 3.925000 1.925000
1.875000 3.925000 1.925000
1.825000 3.975000 1.925000
1.925000 3.975000 1.925000
2.025000 3.625000 1.675000
2.075000 3.775000 1.675000
2.025000 3.625000 1.725000
2.125000 3.625000 1.775000
2.175000 3.725000 1.725000
2.325000 3.725000 1.675000
2.275000 3.625000 1.775000
2.125000 3.625000 1.825000
2.275000 3.675000 1.825000
2.375000 3.625000 1.875000
2.175000 3.925000 1.875000
2.175000 3.975000 1.875000
2.025000 3.875000 1.925000
2.025000 3.875000 1.975000
2.175000 3.875000 1.925000
2.175000 3.875000 1.975000
2.075000 3.975000 1.925000
2.175000 3.925000 1.925000
1.975000 3.525000 2.025000
2.275000 3.575000 2.075000
2.325000 3.575000 2.075000
2.125000 3.325000 2.225000
1.875000 3.625000 2.125000
1.875000 3.675000 2.175000
1.925000 3.675000 2.125000
1.975000 3.675000 2.125000
1.975000 3.725000 2.175000
1.725000 3.925000 2.025000
1.925000 3.675000 2.225000
1.975000 3.725000 2.225000
1.975000 3.675000 2.325000
2.125000 3.625000 2.125000
2.025000 3.725000 2.175000
2.075000 3.725000 2.175000
2.125000 3.725000 2.175000
2.275000 3.675000 2.075000
2.225000 3.675000 2.125000
2.225000 3.725000 2.175000
2.275000 3.725000 2.175000
2.325000 3.725000 2.175000
2.375000 3.725000 2.175000
2.025000 3.725000 2.225000
2.025000 3.725000 2.275000
2.175000 3.725000 2.225000
2.125000 3.725000 2.275000
2.175000 3.725000 2.275000
2.025000 3.675000 2.375000
2.125000 3.725000 2.325000
2.175000 3.725000 2.325000
2.125000 3.725000 2.375000
2.175000 3.725000 2.375000
2.225000 3.725000 2.225000
2.225000 3.725000 2.275000
2.325000 3.725000 2.225000
2.375000 3.725000 2.225000
2.325000 3.725000 2.275000
2.375000 3.725000 2.275000
2.225000 3.725000 2.325000
2.275000 3.725000 2.325000
2.225000 3.725000 2.375000
2.275000 3.725000 2.375000
2.375000 3.725000 2.325000
2.325000 3.725000 2.375000
2.375000 3.725000 2.375000
2.425000 3.575000 1.825000
2.425000 3.575000 1.875000
2.525000 3.575000 1.825000
2.475000 3.475000 1.925000
2.475000 3.475000 1.975000
2.525000 3.475000 1.925000
2.425000 3.525000 1.925000
2.575000 3.575000 1.925000
2.475000 3.725000 1.925000
2.625000 3.775000 1.925000
2.725000 3.475000 2.075000
2.675000 3.475000 2.175000
2.475000 3.275000 2.325000
2.475000 3.275000 2.375000
2.575000 3.225000 2.375000
2.875000 3.425000 2.175000
2.975000 3.325000 2.325000
2.525000 3.725000 2.175000
2.625000 3.675000 2.125000
2.625000 3.725000 2.175000
2.675000 3.725000 2.175000
2.775000 3.725000 2.175000
2.525000 3.725000 2.225000
2.575000 3.725000 2.225000
2.525000 3.725000 2.275000
2.425000 3.725000 2.325000
2.425000 3.725000 2.375000
2.525000 3.725000 2.325000
2.525000 3.725000 2.375000
2.575000 3.725000 2.375000
2.625000 3.725000 2.225000
2.675000 3.725000 2.275000
2.725000 3.725000 2.225000
2.775000 3.725000 2.225000
2.775000 3.725000 2.275000
2.675000 3.725000 2.325000
2.675000 3.725000 2.375000
2.775000 3.725000 2.325000
2.825000 3.725000 2.375000
2.975000 3.775000 2.325000
2.975000 3.725000 2.375000
2.975000 3.775000 2.375000
1.675000 4.025000 1.625000
1.825000 4.025000 1.625000
1.925000 4.025000 1.725000
1.925000 4.025000 1.775000
1.875000 4.275000 1.625000
2.075000 4.025000 1.725000
2.075000 4.075000 1.725000
2.075000 4.025000 1.775000
2.075000 4.025000 1.825000
2.075000 4.025000 1.875000
2.325000 4.025000 1.875000
2.225000 4.125000 1.825000
2.375000 4.125000 1.925000
2.275000 4.275000 1.875000
2.125000 4.725000 1.625000
2.125000 4.475000 1.875000
1.775000 4.125000 2.175000
1.975000 4.025000 2.075000
1.925000 4.125000 2.175000
1.925000 4.125000 2.225000
1.925000 4.125000 2.275000
2.025000 4.025000 2.025000
2.125000 4.125000 2.175000
2.175000 4.125000 2.175000
2.125000 4.175000 2.175000
2.275000 4.075000 2.125000
2.275000 4.175000 2.175000
2.325000 4.125000 2.175000
2.125000 4.225000 2.125000
2.075000 4.125000 2.225000
2.075000 4.125000 2.275000
2.175000 4.125000 2.225000
2.125000 4.175000 2.225000
2.125000 4.125000 2.275000
2.175000 4.125000 2.275000
2.075000 4.125000 2.325000
2.075000 4.125000 2.375000
2.125000 4.125000 2.325000
2.175000 4.125000 2.325000
2.125000 4.125000 2.375000
2.275000 4.175000 2.225000
2.275000 4.175000 2.275000
2.325000 4.125000 2.225000
2.325000 4.125000 2.275000
2.225000 4.125000 2.375000
2.275000 4.125000 2.375000
2.325000 4.125000 2.325000
2.325000 4.125000 2.375000
2.325000 4.675000 2.025000
2.425000 4.175000 1.975000
2.575000 4.175000 1.925000
2.575000 4.175000 1.975000
2.425000 4.125000 2.075000
2.575000 4.125000 2.025000
2.525000 4.175000 2.025000
2.525000 4.125000 2.075000
2.575000 4.125000 2.075000
2.525000 4.175000 2.075000
2.575000 4.075000 2.125000
2.425000 4.125000 2.125000
2.425000 4.125000 2.175000
2.525000 4.125000 2.125000
2.525000 4.125000 2.175000
2.725000 4.125000 2.025000
2.725000 4.125000 2.075000
2.625000 4.075000 2.175000
2.725000 4.125000 2.125000
2.725000 4.125000 2.175000
2.425000 4.125000 2.225000
2.425000 4.125000 2.275000
2.425000 4.175000 2.275000
2.575000 4.125000 2.225000
2.575000 4.125000 2.275000
2.475000 4.125000 2.325000
2.425000 4.175000 2.325000
2.475000 4.125000 2.375000
2.425000 4.175000 2.375000
2.575000 4.125000 2.325000
2.575000 4.125000 2.375000
2.575000 4.175000 2.375000
2.625000 4.125000 2.225000
2.625000 4.125000 2.275000
2.725000 4.125000 2.225000
2.775000 4.125000 2.225000
2.725000 4.175000 2.225000
2.725000 4.125000 2.275000
2.775000 4.125000 2.275000
2.675000 4.125000 2.325000
2.725000 4.125000 2.325000
2.775000 4.125000 2.325000
2.775000 4.125000 2.375000
2.425000 4.225000 2.275000
2.425000 4.275000 2.275000
2.575000 4.225000 2.325000
2.625000 4.325000 2.375000
2.925000 4.175000 2.175000
2.875000 4.175000 2.275000
2.925000 4.175000 2.225000
2.975000 4.125000 2.275000
2.875000 4.175000 2.325000
2.825000 4.125000 2.375000
2.875000 4.125000 2.375000
2.925000 4.125000 2.325000
2.925000 4.125000 2.375000
3.025000 4.175000 2.375000
3.075000 4.475000 2.325000
2.025000 3.675000 2.425000
2.025000 3.675000 2.475000
2.125000 3.725000 2.425000
2.125000 3.725000 2.475000
2.025000 3.675000 2.525000
2.025000 3.675000 2.575000
2.175000 3.725000 2.525000
2.175000 3.725000 2.575000
2.275000 3.725000 2.425000
2.275000 3.725000 2.475000
2.325000 3.725000 2.425000
2.375000 3.725000 2.425000
2.375000 3.725000 2.475000
2.275000 3.725000 2.525000
2.275000 3.725000 2.575000
2.175000 3.675000 2.625000
2.325000 3.725000 2.625000
1.625000 3.225000 3.125000
1.725000 3.225000 3.175000
1.875000 3.225000 3.175000
1.875000 3.275000 3.175000
1.675000 3.675000 3.175000
1.675000 3.725000 3.125000
1.775000 3.725000 3.125000
1.775000 3.725000 3.175000
1.925000 3.725000 3.125000
1.925000 3.725000 3.175000
2.025000 3.725000 3.075000
2.025000 3.725000 3.125000
2.025000 3.725000 3.175000
3.075000 3.225000 2.675000
3.125000 3.275000 2.725000
2.575000 3.725000 2.425000
2.575000 3.725000 2.475000
2.425000 3.725000 2.525000
2.425000 3.725000 2.575000
2.675000 3.725000 2.425000
2.725000 3.725000 2.475000
2.725000 3.725000 2.525000
2.725000 3.725000 2.575000
2.425000 3.725000 2.625000
2.425000 3.725000 2.675000
2.475000 3.725000 2.725000
2.475000 3.725000 2.775000
2.825000 3.725000 2.425000
2.825000 3.725000 2.475000
2.975000 3.725000 2.425000
2.975000 3.725000 2.475000
2.875000 3.725000 2.525000
2.875000 3.725000 2.575000
2.975000 3.725000 2.525000
3.025000 3.725000 2.575000
3.175000 3.775000 2.525000
3.175000 3.725000 2.575000
2.875000 3.725000 2.625000
3.025000 3.725000 2.625000
3.025000 3.725000 2.675000
3.175000 3.725000 2.625000
3.175000 3.725000 2.675000
3.125000 3.775000 2.675000
3.075000 3.725000 2.725000
3.075000 3.725000 2.775000
3.175000 3.725000 2.725000
3.175000 3.725000 2.775000
2.825000 3.875000 2.725000
2.875000 3.925000 2.725000
2.475000 3.225000 3.175000
2.925000 3.225000 2.825000
2.975000 3.225000 2.875000
2.975000 3.275000 2.925000
3.125000 3.275000 2.925000
2.825000 3.325000 3.025000
3.125000 3.725000 2.825000
3.175000 3.725000 2.825000
2.075000 4.125000 2.425000
2.075000 4.125000 2.475000
2.125000 4.125000 2.425000
2.175000 4.125000 2.475000
2.175000 4.125000 2.525000
2.175000 4.125000 2.575000
2.225000 4.125000 2.425000
2.275000 4.125000 2.425000
2.225000 4.125000 2.475000
2.325000 4.125000 2.425000
2.375000 4.125000 2.475000
2.225000 4.125000 2.525000
2.325000 4.125000 2.525000
2.375000 4.125000 2.525000
2.325000 4.125000 2.575000
2.375000 4.125000 2.575000
2.175000 4.125000 2.625000
2.225000 4.125000 2.675000
2.325000 4.125000 2.625000
2.375000 4.125000 2.625000
2.325000 4.125000 2.675000
2.225000 4.125000 2.725000
2.225000 4.125000 2.775000
2.375000 4.125000 2.775000
2.225000 4.125000 2.825000
2.375000 4.125000 2.825000
2.375000 4.125000 2.875000
2.275000 4.225000 2.925000
2.475000 4.125000 2.425000
2.425000 4.175000 2.425000
2.475000 4.125000 2.475000
2.575000 4.175000 2.425000
2.575000 4.175000 2.475000
2.425000 4.125000 2.525000
2.425000 4.125000 2.575000
2.575000 4.175000 2.525000
2.525000 4.125000 2.575000
2.575000 4.175000 2.575000
2.625000 4.125000 2.425000
2.625000 4.125000 2.475000
2.725000 4.125000 2.425000
2.775000 4.125000 2.475000
2.625000 4.125000 2.525000
2.625000 4.125000 2.575000
2.775000 4.125000 2.525000
2.775000 4.125000 2.575000
2.475000 4.125000 2.625000
2.475000 4.125000 2.675000
2.525000 4.125000 2.625000
2.525000 4.125000 2.675000
2.475000 4.125000 2.725000
2.475000 4.125000 2.775000
2.675000 4.125000 2.625000
2.625000 4.125000 2.675000
2.675000 4.125000 2.675000
2.775000 4.125000 2.625000
2.625000 4.125000 2.725000
2.625000 4.125000 2.775000
2.425000 4.225000 2.675000
2.875000 4.125000 2.425000
2.975000 4.125000 2.425000
2.925000 4.125000 2.475000
2.975000 4.125000 2.475000
2.925000 4.125000 2.525000
2.925000 4.125000 2.575000
3.025000 4.175000 2.425000
3.075000 4.175000 2.475000
3.075000 4.125000 2.525000
3.075000 4.125000 2.575000
2.825000 4.125000 2.675000
2.925000 4.125000 2.625000
2.975000 4.125000 2.675000
2.825000 4.125000 2.725000
2.975000 4.125000 2.725000
2.975000 4.175000 2.725000
2.975000 4.125000 2.775000
3.075000 4.125000 2.625000
3.125000 4.125000 2.675000
3.125000 4.125000 2.725000
3.125000 4.125000 2.775000
2.525000 4.125000 2.825000
2.525000 4.125000 2.875000
2.525000 4.125000 2.925000
2.525000 4.125000 2.975000
2.625000 4.125000 2.825000
2.675000 4.125000 2.875000
2.675000 4.125000 2.925000
2.675000 4.125000 2.975000
2.725000 4.125000 3.075000
2.975000 4.125000 2.825000
3.025000 4.125000 2.875000
3.125000 4.125000 2.825000
3.175000 4.125000 2.875000
3.175000 4.125000 2.925000
0.025000 4.975000 1.875000
0.025000 4.975000 1.925000
0.025000 4.975000 1.975000
0.025000 5.025000 1.925000
0.225000 5.125000 1.975000
0.225000 5.175000 1.975000
0.625000 5.125000 1.775000
0.675000 5.525000 1.725000
0.675000 5.575000 1.725000
0.675000 5.525000 1.775000
0.575000 5.475000 1.925000
0.575000 5.475000 1.975000
0.575000 5.525000 1.925000
0.675000 5.525000 1.825000
0.225000 5.125000 2.025000
0.225000 5.125000 2.075000
0.375000 5.325000 2.025000
0.375000 5.375000 2.025000
0.375000 5.325000 2.075000
0.025000 5.425000 2.175000
0.025000 5.575000 2.125000
0.025000 5.575000 2.175000
0.025000 5.475000 2.225000
0.025000 5.575000 2.225000
0.575000 5.475000 2.025000
0.575000 5.425000 2.175000
1.175000 5.125000 1.825000
0.975000 5.225000 1.725000
1.025000 5.325000 1.775000
1.025000 5.325000 1.825000
0.875000 5.425000 1.875000
0.725000 5.625000 1.975000
0.725000 5.675000 1.975000
0.675000 6.125000 1.975000
0.675000 6.225000 1.975000
0.225000 5.725000 2.175000
0.225000 5.725000 2.225000
0.225000 5.775000 2.225000
0.225000 5.725000 2.275000
0.225000 5.775000 2.275000
0.225000 5.775000 2.325000
0.375000 5.825000 2.225000
0.375000 5.825000 2.275000
0.375000 5.925000 2.275000
0.375000 5.925000 2.325000
0.725000 5.625000 2.025000
0.725000 5.675000 2.025000
0.725000 5.625000 2.075000
0.775000 5.875000 2.125000
0.575000 6.075000 2.125000
0.575000 6.075000 2.175000
0.675000 6.175000 2.075000
0.675000 6.225000 2.025000
0.775000 6.225000 2.225000
0.775000 6.275000 2.225000
0.825000 5.725000 1.775000
0.825000 5.675000 1.825000
1.025000 5.875000 1.825000
1.025000 5.825000 1.875000
1.025000 5.875000 1.875000
1.025000 5.925000 1.825000
1.025000 5.825000 1.925000
1.025000 5.825000 1.975000
1.025000 5.875000 1.975000
1.425000 5.675000 1.975000
0.875000 6.325000 1.925000
1.225000 6.025000 1.825000
1.225000 6.025000 1.875000
0.925000 5.775000 2.025000
0.925000 5.775000 2.075000
0.925000 5.775000 2.125000
0.925000 5.925000 2.125000
1.025000 5.825000 2.025000
1.025000 5.875000 2.025000
1.025000 5.825000 2.075000
1.125000 5.925000 2.075000
1.125000 5.975000 2.075000
1.125000 5.925000 2.125000
1.125000 5.975000 2.125000
0.925000 5.775000 2.225000
1.575000 5.775000 2.075000
1.225000 5.975000 2.025000
1.225000 5.975000 2.075000
1.225000 5.975000 2.125000
1.225000 5.975000 2.175000
1.425000 5.825000 2.075000
0.975000 6.025000 2.175000
0.875000 6.225000 2.025000
0.875000 6.275000 2.025000
1.225000 6.025000 2.175000
1.325000 6.125000 2.225000
1.325000 6.125000 2.275000
1.325000 6.175000 2.275000
1.325000 6.125000 2.325000
1.525000 6.325000 2.325000
1.525000 6.375000 2.325000
1.525000 6.325000 2.375000
0.025000 4.875000 2.925000
0.225000 4.925000 2.975000
0.025000 4.975000 3.025000
0.625000 4.875000 3.075000
0.675000 5.125000 3.125000
0.675000 5.525000 2.975000
0.675000 5.525000 3.075000
0.675000 5.525000 3.125000
0.825000 4.825000 2.875000
0.825000 4.875000 2.975000
0.875000 4.875000 2.975000
0.875000 4.975000 3.025000
0.825000 5.175000 3.125000
0.825000 5.325000 2.925000
0.675000 5.825000 3.075000
0.725000 5.975000 3.175000
0.875000 5.725000 3.125000
1.375000 6.175000 2.975000
1.775000 5.175000 1.775000
1.625000 5.275000 1.875000
2.375000 5.525000 1.925000
2.575000 4.925000 2.225000
2.975000 4.925000 2.225000
2.925000 4.875000 2.325000
3.025000 4.975000 2.275000
3.125000 4.875000 2.375000
2.325000 5.825000 1.875000
2.275000 5.825000 2.125000
2.625000 6.325000 2.375000
1.775000 5.475000 2.875000
2.825000 5.025000 3.175000
2.775000 5.725000 2.425000
2.775000 5.725000 2.475000
3.325000 3.675000 0.025000
3.275000 3.775000 0.125000
3.425000 3.725000 0.025000
3.425000 3.725000 0.075000
3.575000 3.725000 0.025000
3.575000 3.725000 0.075000
3.575000 3.725000 0.125000
3.575000 3.725000 0.175000
3.475000 3.825000 0.175000
3.575000 3.725000 0.225000
3.675000 3.725000 0.025000
3.675000 3.725000 0.075000
3.725000 3.725000 0.025000
3.725000 3.725000 0.075000
3.675000 3.725000 0.125000
3.675000 3.725000 0.175000
3.725000 3.725000 0.125000
3.725000 3.725000 0.175000
3.825000 3.725000 0.025000
3.825000 3.725000 0.075000
3.925000 3.725000 0.025000
3.925000 3.725000 0.075000
3.825000 3.725000 0.125000
3.825000 3.725000 0.175000
3.925000 3.725000 0.125000
3.925000 3.725000 0.175000
3.725000 3.925000 0.175000
3.675000 3.675000 0.275000
3.675000 3.725000 0.225000
3.675000 3.725000 0.275000
3.725000 3.725000 0.275000
3.675000 3.675000 0.325000
3.675000 3.675000 0.375000
3.775000 3.725000 0.325000
3.825000 3.725000 0.225000
3.825000 3.725000 0.275000
3.925000 3.725000 0.225000
3.925000 3.725000 0.275000
3.875000 3.725000 0.325000
3.875000 3.775000 0.375000
3.975000 3.775000 0.325000
3.925000 3.775000 0.375000
3.675000 3.675000 0.425000
3.675000 3.675000 0.475000
3.925000 3.775000 0.425000
3.925000 3.775000 0.475000
4.025000 3.275000 0.025000
4.025000 3.775000 0.025000
4.025000 3.775000 0.075000
4.025000 3.775000 0.125000
4.025000 3.775000 0.175000
4.175000 3.825000 0.025000
4.175000 3.825000 0.075000
4.175000 3.825000 0.125000
4.175000 3.825000 0.175000
4.275000 3.825000 0.025000
4.275000 3.825000 0.075000
4.375000 3.825000 0.075000
4.275000 3.825000 0.125000
4.275000 3.825000 0.175000
4.375000 3.825000 0.125000
4.025000 3.775000 0.225000
4.075000 3.775000 0.275000
4.075000 3.775000 0.325000
4.175000 3.825000 0.225000
4.175000 3.825000 0.275000
4.075000 3.825000 0.325000
4.075000 3.825000 0.375000
4.275000 3.825000 0.225000
4.275000 3.825000 0.275000
4.275000 3.825000 0.325000
4.275000 3.825000 0.375000
4.775000 3.675000 0.075000
4.525000 3.825000 0.075000
4.525000 3.825000 0.125000
4.075000 3.775000 0.475000
4.125000 3.825000 0.425000
4.275000 3.825000 0.425000
4.275000 3.825000 0.475000
3.275000 4.125000 0.025000
3.275000 4.125000 0.075000
3.325000 4.125000 0.025000
3.325000 4.125000 0.075000
3.275000 4.125000 0.125000
3.275000 4.125000 0.175000
3.425000 4.025000 0.025000
3.425000 4.025000 0.075000
3.425000 4.025000 0.125000
3.475000 4.025000 0.175000
3.525000 4.075000 0.175000
3.425000 4.175000 0.175000
3.275000 4.125000 0.225000
3.275000 4.125000 0.275000
3.275000 4.125000 0.325000
3.225000 4.125000 0.375000
3.275000 4.125000 0.375000
3.475000 4.225000 0.225000
3.625000 4.075000 0.025000
3.625000 4.075000 0.075000
3.775000 4.025000 0.025000
3.675000 4.075000 0.125000
3.625000 4.075000 0.175000
3.875000 4.125000 0.175000
3.775000 4.225000 0.025000
3.675000 4.275000 0.175000
3.775000 4.225000 0.175000
3.625000 4.325000 0.175000
3.875000 4.225000 0.025000
3.875000 4.225000 0.075000
3.975000 4.225000 0.025000
3.925000 4.225000 0.075000
3.875000 4.225000 0.125000
3.825000 4.275000 0.125000
3.875000 4.225000 0.175000
3.975000 4.275000 0.125000
3.625000 4.325000 0.225000
3.925000 4.375000 0.225000
3.675000 4.475000 0.275000
3.775000 4.575000 0.275000
3.275000 4.125000 0.425000
3.275000 4.125000 0.475000
4.175000 4.175000 0.075000
4.175000 4.175000 0.125000
4.175000 4.175000 0.175000
4.025000 4.225000 0.025000
4.025000 4.225000 0.075000
4.175000 4.225000 0.025000
4.125000 4.225000 0.075000
4.175000 4.225000 0.075000
4.025000 4.225000 0.125000
4.025000 4.225000 0.175000
4.125000 4.225000 0.125000
4.125000 4.225000 0.175000
4.225000 4.225000 0.025000
4.225000 4.225000 0.075000
4.325000 4.225000 0.025000
4.325000 4.225000 0.075000
4.225000 4.225000 0.125000
4.225000 4.225000 0.175000
4.325000 4.225000 0.125000
4.325000 4.225000 0.175000
4.025000 4.225000 0.225000
4.025000 4.225000 0.275000
4.125000 4.225000 0.225000
4.125000 4.225000 0.275000
4.175000 4.225000 0.275000
4.125000 4.225000 0.325000
4.175000 4.225000 0.325000
4.125000 4.225000 0.375000
4.175000 4.225000 0.375000
4.225000 4.225000 0.225000
4.225000 4.225000 0.275000
4.325000 4.225000 0.225000
4.325000 4.225000 0.275000
4.325000 4.225000 0.325000
4.325000 4.225000 0.375000
4.425000 4.225000 0.025000
4.425000 4.225000 0.075000
4.525000 4.225000 0.025000
4.525000 4.225000 0.075000
4.425000 4.225000 0.125000
4.425000 4.225000 0.175000
4.525000 4.225000 0.125000
4.525000 4.225000 0.175000
4.625000 4.275000 0.075000
4.725000 4.275000 0.025000
4.725000 4.275000 0.075000
4.625000 4.225000 0.125000
4.625000 4.225000 0.175000
4.725000 4.275000 0.125000
4.725000 4.275000 0.175000
4.425000 4.225000 0.225000
4.425000 4.225000 0.275000
4.525000 4.225000 0.225000
4.525000 4.225000 0.275000
4.425000 4.225000 0.325000
4.525000 4.225000 0.325000
4.525000 4.225000 0.375000
4.525000 4.325000 0.375000
4.625000 4.225000 0.225000
4.625000 4.225000 0.275000
4.725000 4.275000 0.225000
4.725000 4.275000 0.275000
4.625000 4.225000 0.325000
4.625000 4.225000 0.375000
4.725000 4.275000 0.325000
4.725000 4.225000 0.375000
4.075000 4.525000 0.175000
4.325000 4.675000 0.025000
4.275000 4.625000 0.175000
4.125000 4.225000 0.425000
4.175000 4.225000 0.425000
4.175000 4.225000 0.475000
4.175000 4.225000 0.525000
4.175000 4.225000 0.575000
4.325000 4.225000 0.425000
4.325000 4.225000 0.475000
4.325000 4.225000 0.525000
4.325000 4.225000 0.575000
4.025000 4.025000 0.775000
4.175000 4.025000 0.775000
4.175000 4.225000 0.625000
4.175000 4.225000 0.675000
4.175000 4.225000 0.725000
4.175000 4.225000 0.775000
4.375000 4.225000 0.625000
4.375000 4.225000 0.675000
4.375000 4.225000 0.725000
4.375000 4.225000 0.775000
4.525000 4.225000 0.425000
4.525000 4.225000 0.475000
4.525000 4.225000 0.525000
4.525000 4.225000 0.575000
4.725000 4.225000 0.425000
4.725000 4.225000 0.475000
4.725000 4.225000 0.525000
4.725000 4.225000 0.575000
4.525000 4.225000 0.625000
4.525000 4.225000 0.675000
4.525000 4.225000 0.725000
4.525000 4.225000 0.775000
4.725000 4.225000 0.625000
4.725000 4.225000 0.675000
4.725000 4.225000 0.725000
4.725000 4.225000 0.775000
3.575000 3.675000 0.975000
3.575000 3.675000 1.025000
3.575000 3.675000 1.075000
3.425000 3.625000 1.125000
3.425000 3.625000 1.175000
3.425000 3.975000 1.175000
3.625000 3.675000 1.125000
3.625000 3.675000 1.175000
3.225000 3.675000 1.275000
3.325000 3.625000 1.225000
3.325000 3.625000 1.275000
3.225000 3.625000 1.325000
3.225000 3.625000 1.375000
3.275000 3.675000 1.375000
3.325000 3.675000 1.325000
3.375000 3.675000 1.325000
3.375000 3.625000 1.375000
3.475000 3.675000 1.225000
3.475000 3.675000 1.275000
3.525000 3.675000 1.275000
3.475000 3.675000 1.375000
3.525000 3.675000 1.325000
3.575000 3.675000 1.325000
3.525000 3.675000 1.375000
3.425000 3.975000 1.225000
3.425000 3.975000 1.275000
3.425000 3.975000 1.325000
3.225000 3.625000 1.425000
3.375000 3.625000 1.425000
3.325000 3.675000 1.425000
3.375000 3.675000 1.425000
3.325000 3.675000 1.475000
3.225000 3.725000 1.425000
3.225000 3.725000 1.475000
3.225000 3.675000 1.575000
3.375000 3.675000 1.525000
3.375000 3.725000 1.525000
3.375000 3.725000 1.575000
3.475000 3.675000 1.425000
3.425000 3.675000 1.475000
3.475000 3.675000 1.475000
3.525000 3.675000 1.425000
3.575000 3.675000 1.425000
3.575000 3.725000 1.475000
3.425000 3.725000 1.525000
3.475000 3.725000 1.575000
3.525000 3.725000 1.525000
3.575000 3.725000 1.525000
3.525000 3.725000 1.575000
3.475000 3.975000 1.425000
3.475000 3.975000 1.475000
3.425000 3.975000 1.575000
3.625000 3.675000 1.225000
3.625000 3.675000 1.275000
3.675000 3.675000 1.325000
3.625000 3.675000 1.375000
3.675000 3.675000 1.375000
3.625000 3.725000 1.425000
3.675000 3.725000 1.475000
3.725000 3.725000 1.425000
3.775000 3.725000 1.475000
3.625000 3.725000 1.525000
3.675000 3.725000 1.525000
3.625000 3.725000 1.575000
3.775000 3.725000 1.525000
3.725000 3.725000 1.575000
3.775000 3.725000 1.575000
3.875000 3.775000 1.525000
3.875000 3.775000 1.575000
4.675000 3.425000 1.125000
4.775000 3.675000 0.825000
4.525000 3.825000 0.925000
4.575000 3.825000 0.925000
4.575000 3.825000 0.975000
4.775000 3.825000 0.875000
4.775000 3.825000 0.925000
4.775000 3.825000 0.975000
4.775000 3.625000 1.125000
4.575000 3.825000 1.025000
4.575000 3.825000 1.075000
4.575000 3.825000 1.125000
4.775000 3.825000 1.025000
4.775000 3.825000 1.075000
4.625000 3.825000 1.175000
4.675000 3.225000 1.275000
4.075000 3.775000 1.525000
4.075000 3.775000 1.575000
4.275000 3.775000 1.575000
4.275000 3.825000 1.525000
4.275000 3.825000 1.575000
4.525000 3.825000 1.325000
4.575000 3.825000 1.325000
4.575000 3.825000 1.375000
4.625000 3.825000 1.225000
4.625000 3.825000 1.275000
4.725000 3.825000 1.275000
4.625000 3.825000 1.325000
4.675000 3.825000 1.325000
4.675000 3.825000 1.375000
4.725000 3.825000 1.325000
4.775000 3.825000 1.375000
4.575000 3.775000 1.425000
4.575000 3.775000 1.475000
4.425000 3.775000 1.525000
4.425000 3.775000 1.575000
4.775000 3.775000 1.425000
4.725000 3.775000 1.475000
4.775000 3.775000 1.475000
4.625000 3.775000 1.525000
4.725000 3.775000 1.525000
4.775000 3.775000 1.525000
4.725000 3.775000 1.575000
4.675000 3.825000 1.425000
3.575000 4.175000 1.175000
3.625000 4.075000 1.175000
3.725000 4.175000 1.175000
3.825000 4.125000 1.175000
3.725000 4.225000 1.175000
3.875000 4.225000 1.125000
3.925000 4.225000 1.175000
3.975000 4.325000 1.125000
3.475000 4.775000 0.825000
3.375000 4.125000 1.275000
3.575000 4.175000 1.225000
3.575000 4.175000 1.275000
3.575000 4.175000 1.325000
3.575000 4.175000 1.375000
3.575000 4.175000 1.425000
3.725000 4.175000 1.275000
3.675000 4.025000 1.375000
3.775000 4.175000 1.325000
3.775000 4.175000 1.375000
3.825000 4.125000 1.225000
3.825000 4.125000 1.275000
3.875000 4.125000 1.375000
3.925000 4.175000 1.325000
3.925000 4.175000 1.375000
3.925000 4.225000 1.225000
3.925000 4.225000 1.275000
3.925000 4.225000 1.325000
3.625000 4.125000 1.475000
3.775000 4.175000 1.425000
3.775000 4.175000 1.475000
3.675000 4.025000 1.525000
3.625000 4.125000 1.525000
3.625000 4.125000 1.575000
3.725000 4.175000 1.525000
3.775000 4.175000 1.525000
3.725000 4.175000 1.575000
3.775000 4.175000 1.575000
3.875000 4.125000 1.475000
3.925000 4.175000 1.425000
3.925000 4.175000 1.475000
3.875000 4.175000 1.525000
3.875000 4.175000 1.575000
3.975000 4.175000 1.525000
3.975000 4.175000 1.575000
3.625000 4.225000 1.575000
3.975000 4.275000 1.525000
4.175000 4.225000 0.825000
4.025000 4.175000 1.125000
4.025000 4.175000 1.175000
4.075000 4.225000 1.125000
4.075000 4.225000 1.175000
4.575000 4.225000 0.825000
4.775000 4.425000 0.875000
4.025000 4.175000 1.225000
4.075000 4.175000 1.325000
4.075000 4.175000 1.375000
4.075000 4.225000 1.225000
4.075000 4.225000 1.275000
4.075000 4.225000 1.325000
4.125000 4.225000 1.375000
4.075000 4.175000 1.425000
4.125000 4.175000 1.425000
4.125000 4.175000 1.475000
4.025000 4.175000 1.575000
4.125000 4.175000 1.525000
4.125000 4.175000 1.575000
4.075000 4.225000 1.475000
4.125000 4.225000 1.425000
4.075000 4.225000 1.525000
4.075000 4.225000 1.575000
5.175000 3.325000 0.225000
4.875000 3.425000 0.275000
4.975000 3.825000 0.025000
4.975000 3.825000 0.075000
5.175000 3.825000 0.025000
5.175000 3.825000 0.075000
5.175000 3.825000 0.125000
5.175000 3.825000 0.175000
5.175000 3.825000 0.225000
5.325000 3.875000 0.025000
5.325000 3.875000 0.075000
5.325000 3.875000 0.125000
5.325000 3.875000 0.175000
5.425000 3.875000 0.025000
5.425000 3.875000 0.075000
5.575000 3.875000 0.025000
5.575000 3.875000 0.075000
5.425000 3.875000 0.125000
5.425000 3.875000 0.175000
5.575000 3.875000 0.125000
5.575000 3.875000 0.175000
5.225000 3.825000 0.275000
5.225000 3.875000 0.275000
5.325000 3.875000 0.225000
5.325000 3.825000 0.275000
5.375000 3.825000 0.275000
5.325000 3.875000 0.275000
5.325000 3.825000 0.325000
5.325000 3.825000 0.375000
5.425000 3.875000 0.225000
5.425000 3.825000 0.275000
5.575000 3.875000 0.225000
5.575000 3.875000 0.275000
5.575000 3.875000 0.325000
5.575000 3.875000 0.375000
4.875000 3.475000 0.525000
4.875000 3.475000 0.575000
5.025000 3.225000 0.725000
4.875000 3.425000 0.675000
4.875000 3.425000 0.725000
5.525000 3.275000 0.575000
5.475000 3.575000 0.775000
5.325000 3.825000 0.425000
5.325000 3.825000 0.475000
5.375000 3.825000 0.525000
5.375000 3.825000 0.575000
5.575000 3.875000 0.425000
5.575000 3.875000 0.475000
5.375000 3.825000 0.625000
5.375000 3.825000 0.675000
5.375000 3.825000 0.725000
5.375000 3.825000 0.775000
5.875000 3.775000 0.025000
5.875000 3.775000 0.075000
5.875000 3.775000 0.125000
5.875000 3.775000 0.175000
5.675000 3.875000 0.025000
5.675000 3.875000 0.075000
5.675000 3.875000 0.125000
5.875000 3.875000 0.025000
5.875000 3.825000 0.075000
5.875000 3.875000 0.075000
5.825000 3.875000 0.125000
5.875000 3.825000 0.175000
5.825000 3.875000 0.175000
5.725000 3.875000 0.275000
5.825000 3.875000 0.225000
5.825000 3.875000 0.275000
5.875000 3.875000 0.275000
5.925000 3.825000 0.275000
5.825000 3.925000 0.275000
5.825000 3.875000 0.325000
5.875000 3.875000 0.375000
5.625000 3.875000 0.525000
5.625000 3.875000 0.575000
5.875000 3.875000 0.425000
5.875000 3.875000 0.475000
5.875000 3.875000 0.525000
5.875000 3.875000 0.575000
5.625000 3.875000 0.625000
5.625000 3.875000 0.675000
5.625000 3.825000 0.725000
5.625000 3.825000 0.775000
5.875000 3.875000 0.625000
5.875000 3.875000 0.675000
5.875000 3.825000 0.725000
5.875000 3.825000 0.775000
4.825000 4.275000 0.075000
4.825000 4.275000 0.125000
5.025000 4.275000 0.025000
5.025000 4.275000 0.075000
5.025000 4.275000 0.125000
5.175000 4.375000 0.125000
5.275000 4.125000 0.075000
5.275000 4.275000 0.025000
5.275000 4.275000 0.075000
5.375000 4.375000 0.075000
5.275000 4.275000 0.125000
5.425000 4.225000 0.025000
5.225000 4.725000 0.025000
5.225000 4.725000 0.075000
5.225000 4.725000 0.125000
5.225000 4.725000 0.175000
5.225000 4.725000 0.225000
5.225000 4.725000 0.275000
5.225000 4.725000 0.325000
5.225000 4.725000 0.475000
5.225000 4.725000 0.525000
5.225000 4.725000 0.575000
5.225000 4.725000 0.625000
5.275000 4.725000 0.675000
5.675000 4.425000 0.025000
5.675000 4.425000 0.075000
5.775000 4.525000 0.025000
5.775000 4.525000 0.075000
6.175000 4.575000 0.325000
6.325000 4.375000 0.475000
6.375000 4.375000 0.775000
6.325000 4.425000 0.525000
6.375000 4.425000 0.575000
6.375000 4.425000 0.625000
6.375000 4.425000 0.675000
6.375000 4.425000 0.725000
5.575000 3.275000 1.125000
4.925000 3.825000 0.875000
4.975000 3.825000 0.925000
4.975000 3.825000 0.975000
5.175000 3.825000 0.875000
5.175000 3.825000 0.925000
5.175000 3.825000 0.975000
4.975000 3.825000 1.025000
4.975000 3.825000 1.075000
4.825000 3.825000 1.125000
4.825000 3.825000 1.175000
4.975000 3.825000 1.125000
5.175000 3.825000 1.025000
5.025000 3.825000 1.125000
5.025000 3.825000 1.175000
5.225000 3.825000 1.075000
5.225000 3.825000 1.125000
5.225000 3.825000 1.175000
5.225000 3.275000 1.375000
5.275000 3.325000 1.375000
5.325000 3.325000 1.375000
5.475000 3.275000 1.375000
5.575000 3.325000 1.375000
5.575000 3.375000 1.375000
4.825000 3.825000 1.225000
4.825000 3.825000 1.275000
4.925000 3.825000 1.275000
4.875000 3.825000 1.325000
4.875000 3.825000 1.375000
4.975000 3.825000 1.325000
4.975000 3.825000 1.375000
5.025000 3.825000 1.225000
5.075000 3.825000 1.275000
5.175000 3.825000 1.275000
5.075000 3.825000 1.325000
5.075000 3.825000 1.375000
5.175000 3.825000 1.325000
5.175000 3.825000 1.375000
4.975000 3.775000 1.425000
4.975000 3.775000 1.475000
4.825000 3.775000 1.575000
4.875000 3.825000 1.425000
4.875000 3.825000 1.475000
4.925000 3.825000 1.475000
4.925000 3.825000 1.525000
4.975000 3.825000 1.575000
5.075000 3.825000 1.425000
5.125000 3.825000 1.475000
5.025000 3.825000 1.525000
5.025000 3.825000 1.575000
5.125000 3.825000 1.525000
5.175000 3.825000 1.575000
5.275000 3.825000 1.225000
5.275000 3.825000 1.275000
5.275000 3.825000 1.325000
5.225000 3.825000 1.375000
5.325000 3.825000 1.375000
5.225000 3.825000 1.425000
5.225000 3.825000 1.475000
5.325000 3.825000 1.425000
5.325000 3.825000 1.475000
5.375000 3.825000 1.475000
5.225000 3.825000 1.525000
5.275000 3.825000 1.575000
5.375000 3.825000 1.525000
5.375000 3.825000 1.575000
5.475000 3.825000 1.525000
5.525000 3.825000 1.575000
5.575000 3.825000 1.575000
5.625000 3.275000 1.125000
5.625000 3.325000 1.125000
6.075000 3.425000 1.125000
5.675000 3.825000 0.825000
5.825000 3.975000 0.825000
5.625000 3.375000 1.425000
5.625000 3.875000 1.575000
5.775000 3.825000 1.525000
5.775000 3.825000 1.575000
5.625000 3.925000 1.525000
5.625000 3.925000 1.575000
5.025000 4.275000 1.025000
5.075000 4.275000 1.025000
5.075000 4.275000 1.075000
5.175000 4.375000 1.025000
5.075000 4.275000 1.125000
5.075000 4.275000 1.175000
5.275000 4.275000 0.975000
5.425000 4.175000 1.025000
5.425000 4.175000 1.075000
5.425000 4.175000 1.125000
5.275000 4.275000 1.025000
5.275000 4.275000 1.075000
5.275000 4.275000 1.125000
5.325000 4.275000 1.175000
5.425000 4.375000 1.025000
4.975000 4.425000 0.875000
5.075000 4.275000 1.225000
5.125000 4.225000 1.375000
5.025000 4.275000 1.425000
5.075000 4.275000 1.475000
5.125000 4.225000 1.425000
5.175000 4.225000 1.475000
5.175000 4.375000 1.475000
5.075000 4.225000 1.575000
5.175000 4.225000 1.525000
5.175000 4.225000 1.575000
5.325000 4.275000 1.225000
5.325000 4.275000 1.275000
5.325000 4.275000 1.325000
5.325000 4.275000 1.375000
5.375000 4.275000 1.375000
5.375000 4.125000 1.525000
5.375000 4.125000 1.575000
5.225000 4.275000 1.425000
5.275000 4.275000 1.475000
5.375000 4.275000 1.425000
5.375000 4.275000 1.475000
5.375000 4.375000 1.475000
5.275000 4.225000 1.575000
5.375000 4.225000 1.525000
5.375000 4.225000 1.575000
5.425000 4.375000 1.525000
5.725000 4.275000 0.925000
6.375000 4.175000 0.875000
6.375000 4.375000 0.825000
6.375000 4.375000 0.875000
5.775000 4.525000 1.025000
5.975000 4.475000 1.025000
5.975000 4.475000 1.125000
5.975000 4.475000 1.175000
5.825000 4.775000 1.125000
6.025000 4.475000 1.075000
6.025000 4.525000 1.025000
6.025000 4.475000 1.125000
5.675000 4.175000 1.225000
5.675000 4.175000 1.275000
5.925000 4.375000 1.325000
5.675000 4.225000 1.425000
5.675000 4.225000 1.475000
5.775000 4.475000 1.475000
5.725000 4.475000 1.525000
5.775000 4.725000 1.575000
6.025000 4.475000 1.525000
6.025000 4.475000 1.575000
3.675000 5.275000 0.425000
3.625000 5.475000 0.425000
4.025000 4.825000 0.175000
4.375000 4.825000 0.175000
4.025000 4.825000 0.225000
4.025000 4.925000 0.275000
4.525000 4.925000 0.125000
4.775000 4.825000 0.425000
3.475000 5.675000 0.425000
4.575000 5.825000 0.175000
4.575000 5.725000 0.225000
3.625000 5.275000 0.925000
3.875000 5.375000 0.925000
3.975000 4.875000 1.475000
4.125000 5.525000 0.975000
4.225000 4.825000 1.275000
4.425000 4.825000 1.275000
4.325000 5.825000 1.025000
4.225000 5.925000 1.025000
4.225000 6.225000 1.025000
4.725000 6.375000 0.825000
5.175000 4.825000 0.325000
5.175000 4.825000 0.375000
5.375000 4.825000 0.125000
5.425000 4.825000 0.125000
5.325000 5.075000 0.125000
5.325000 5.075000 0.175000
5.325000 5.075000 0.225000
5.325000 5.075000 0.275000
5.325000 5.075000 0.325000
4.875000 5.275000 0.125000
5.175000 5.225000 0.375000
4.975000 4.825000 0.425000
5.125000 5.475000 0.425000
5.325000 5.425000 0.425000
5.875000 4.825000 0.025000
5.875000 4.825000 0.075000
5.875000 4.825000 0.125000
5.925000 5.075000 0.075000
5.925000 5.075000 0.125000
6.175000 5.275000 0.075000
6.325000 5.225000 0.025000
6.325000 5.225000 0.075000
6.325000 5.225000 0.125000
6.025000 5.425000 0.075000
6.075000 5.575000 0.025000
6.025000 5.425000 0.125000
6.075000 5.575000 0.325000
6.075000 5.575000 0.375000
6.075000 5.575000 0.425000
6.025000 5.525000 0.675000
5.175000 6.325000 0.175000
5.475000 6.125000 0.175000
5.475000 6.125000 0.225000
5.325000 6.225000 0.225000
6.075000 5.725000 0.375000
5.625000 6.325000 0.175000
6.025000 6.325000 0.025000
6.075000 6.225000 0.125000
6.225000 6.275000 0.075000
6.075000 6.225000 0.225000
6.075000 6.225000 0.275000
6.125000 6.275000 0.225000
6.125000 6.275000 0.325000
6.075000 5.675000 0.425000
6.075000 5.725000 0.425000
6.125000 5.875000 0.575000
6.125000 5.625000 0.675000
6.225000 5.675000 0.725000
6.225000 5.675000 0.775000
5.825000 6.225000 0.425000
5.825000 6.225000 0.525000
6.175000 6.075000 0.425000
6.175000 6.075000 0.475000
6.275000 6.175000 0.425000
6.075000 6.225000 0.425000
6.075000 6.225000 0.475000
6.125000 6.275000 0.425000
6.125000 6.275000 0.475000
6.125000 6.275000 0.525000
6.025000 6.325000 0.725000
6.075000 6.325000 0.775000
6.225000 6.225000 0.725000
6.225000 6.225000 0.775000
5.125000 5.425000 1.375000
5.275000 5.575000 1.425000
5.625000 4.825000 1.125000
5.875000 5.025000 1.175000
6.225000 4.875000 1.125000
6.225000 4.875000 1.175000
6.175000 5.575000 0.975000
6.175000 5.575000 1.025000
5.875000 4.975000 1.275000
5.875000 5.025000 1.225000
6.175000 4.825000 1.225000
5.425000 5.775000 1.525000
5.475000 5.825000 1.475000
6.225000 5.675000 0.825000
6.125000 5.825000 0.875000
6.125000 5.825000 0.925000
6.275000 5.975000 0.825000
6.225000 6.175000 0.925000
6.075000 6.325000 0.825000
6.125000 6.375000 0.925000
6.225000 6.225000 0.825000
6.225000 6.225000 0.875000
3.425000 3.475000 1.775000
3.675000 3.525000 1.725000
3.425000 3.725000 1.625000
3.425000 3.725000 1.675000
3.575000 3.725000 1.625000
3.575000 3.725000 1.675000
3.575000 3.725000 1.725000
3.625000 3.725000 1.625000
3.625000 3.725000 1.675000
3.725000 3.725000 1.625000
3.775000 3.725000 1.625000
3.725000 3.725000 1.675000
3.775000 3.725000 1.675000
3.625000 3.725000 1.775000
3.725000 3.725000 1.725000
3.725000 3.725000 1.775000
3.775000 3.725000 1.775000
3.925000 3.775000 1.625000
3.925000 3.775000 1.675000
3.825000 3.725000 1.725000
3.825000 3.725000 1.775000
3.925000 3.725000 1.775000
3.625000 3.725000 1.825000
3.775000 3.725000 1.825000
3.775000 3.725000 1.875000
3.975000 3.725000 1.825000
3.975000 3.725000 1.875000
3.975000 3.725000 1.925000
3.975000 3.725000 1.975000
3.825000 3.225000 2.125000
3.825000 3.225000 2.175000
3.975000 3.325000 2.325000
4.075000 3.775000 1.625000
4.075000 3.775000 1.675000
4.125000 3.775000 1.725000
4.125000 3.775000 1.775000
4.275000 3.775000 1.625000
4.275000 3.775000 1.675000
4.275000 3.775000 1.725000
4.325000 3.775000 1.775000
4.125000 3.775000 1.825000
4.175000 3.775000 1.825000
4.025000 3.725000 1.975000
4.175000 3.725000 1.925000
4.175000 3.725000 1.975000
4.325000 3.775000 1.825000
4.325000 3.775000 1.875000
4.375000 3.775000 1.875000
4.375000 3.775000 1.925000
4.375000 3.775000 1.975000
4.425000 3.775000 1.625000
4.475000 3.775000 1.625000
4.475000 3.775000 1.675000
4.475000 3.775000 1.725000
4.475000 3.775000 1.775000
4.625000 3.775000 1.625000
4.675000 3.775000 1.675000
4.725000 3.775000 1.625000
4.775000 3.775000 1.625000
4.775000 3.775000 1.675000
4.675000 3.775000 1.725000
4.675000 3.775000 1.775000
4.775000 3.775000 1.725000
4.525000 3.775000 1.825000
4.525000 3.775000 1.875000
4.575000 3.775000 1.925000
4.575000 3.775000 1.975000
4.725000 3.775000 1.825000
4.725000 3.775000 1.875000
4.775000 3.775000 1.975000
4.125000 3.275000 2.375000
4.725000 3.575000 2.025000
4.025000 3.725000 2.025000
4.025000 3.725000 2.075000
4.175000 3.775000 2.125000
4.225000 3.725000 2.025000
4.225000 3.725000 2.075000
4.375000 3.775000 2.025000
4.225000 3.725000 2.125000
4.225000 3.725000 2.175000
4.275000 3.725000 2.175000
4.375000 3.775000 2.125000
4.375000 3.775000 2.175000
4.225000 3.725000 2.225000
4.275000 3.725000 2.225000
4.225000 3.725000 2.275000
4.225000 3.725000 2.325000
4.275000 3.725000 2.325000
4.275000 3.725000 2.375000
4.425000 3.725000 2.075000
4.575000 3.775000 2.025000
4.425000 3.725000 2.125000
4.425000 3.725000 2.175000
4.475000 3.725000 2.175000
4.575000 3.775000 2.175000
4.625000 3.775000 2.075000
4.775000 3.775000 2.025000
4.625000 3.725000 2.125000
4.675000 3.725000 2.175000
4.625000 3.775000 2.175000
4.775000 3.775000 2.175000
