# .PCD v0.7 - Point Cloud Data file format
VERSION 0.7
FIELDS x y z
SIZE 4 4 4
TYPE F F F
COUNT 1 1 1
WIDTH 1722
HEIGHT 1
VIEWPOINT 0 0 0 1 0 0 0
POINTS 1722
DATA ascii
4.080766 13.038354 1.814484
5.074764 14.146109 0.432687
5.338824 13.272719 1.683951
5.415174 13.348482 0.741247
5.383801 13.288286 1.579952
5.461837 13.350508 0.617735
4.553688 13.683063 -0.000334
4.189294 13.022865 0.778455
4.476206 13.033624 1.496191
4.056600 14.091379 0.345570
4.033145 14.070917 1.207606
3.668712 13.207685 1.666449
4.083822 14.073578 0.209003
4.071105 14.072903 1.093181
4.543590 13.032566 2.021051
5.339151 14.165573 0.588238
4.565203 13.040246 1.217617
5.370137 14.149275 0.439069
5.887602 13.540279 1.869905
6.065709 13.713996 0.819995
4.340985 13.045845 1.673787
4.371290 13.035954 0.891260
3.722189 13.049986 1.800175
6.134759 13.687098 0.523806
4.713430 13.055355 1.547780
4.665765 13.417471 -0.150291
5.526420 14.116789 0.885609
3.779816 13.032953 1.616425
5.556316 14.094927 0.739301
3.808917 13.026369 1.526859
5.640605 14.151575 0.599393
4.783833 13.027585 1.247947
4.146826 13.568954 -0.075476
6.065707 13.405331 0.930107
5.301160 14.147331 0.286031
4.559161 13.042962 1.011383
5.280636 14.063536 0.132842
4.589164 13.040633 0.913133
4.584889 13.044843 1.623886
4.898213 13.446066 0.000786
4.619476 13.039543 0.815236
5.178564 13.339831 1.720603
4.819596 13.286799 -0.148025
5.233550 13.351194 0.787579
5.226828 13.358732 1.622150
4.588317 14.111185 0.207328
4.026544 13.020062 0.904257
4.621185 14.112617 0.048102
5.291725 13.347068 1.395550
4.721387 13.054941 1.972262
5.304467 13.296251 0.411053
4.762278 13.056283 1.139584
5.627699 14.171225 0.287919
4.930173 13.246634 1.869370
6.077033 12.993343 1.541225
5.168706 13.456859 -0.008621
5.793369 13.719204 1.954043
4.578291 12.648830 -0.085684
5.510692 13.339884 0.808868
5.881959 13.774088 1.855110
5.552449 13.337412 0.682458
5.933026 13.778639 1.731051
4.842680 14.037498 0.046469
5.965764 13.766352 1.593702
5.617581 13.318152 0.419769
5.240963 13.356714 2.099992
5.384896 13.472573 1.184237
5.329839 13.361473 0.144262
5.355589 13.342511 -0.010189
4.359284 13.027210 1.129253
4.331190 13.057864 1.827618
5.105196 14.139397 0.357722
5.948048 13.483155 1.802274
5.148768 14.141817 0.205205
4.951581 13.779243 0.053165
5.593169 13.366776 0.282074
4.586566 13.047317 1.163602
5.426161 14.176711 0.362659
4.594887 13.073728 1.790752
4.677299 13.069198 0.976804
5.062035 13.549733 0.058391
3.052010 10.017713 1.939372
4.827122 13.061642 1.200813
2.887521 10.019628 1.312943
2.878670 10.064599 0.975350
6.403148 12.610082 0.832633
6.391413 12.561265 0.694748
6.129839 12.316107 0.409808
3.124833 10.302555 2.169088
3.162861 10.323033 2.143192
5.891509 12.432994 0.149156
3.034663 9.932580 1.871246
2.878219 9.946425 1.336792
2.883899 9.957838 1.283139
2.842109 10.019328 0.831095
2.812320 10.037556 0.618299
6.096868 12.050117 0.403271
5.892607 12.186174 0.152162
5.961604 12.165059 -0.152558
6.132460 12.204860 2.179344
5.938725 12.009102 0.276629
5.967156 11.964525 0.013553
6.028391 11.970383 -0.148402
5.889555 12.596263 0.209785
3.047899 10.155548 2.089267
6.063635 11.926209 2.088951
3.098775 10.175844 2.099997
2.873979 10.102495 0.970210
2.879735 10.100305 0.906217
3.911149 10.549483 0.731138
3.964757 10.560506 0.705607
4.021992 10.573181 0.676743
3.043179 10.123020 1.904208
6.326046 11.792204 1.233800
2.862602 10.075904 0.935767
3.786884 10.557915 0.813515
3.830286 10.567012 0.790236
6.126146 12.402727 2.165647
6.034084 12.250147 1.862499
4.094724 10.620155 0.648572
4.201695 10.636882 0.573744
6.132705 12.154923 2.109576
5.968859 11.304650 -0.115910
6.023537 12.003945 1.809654
6.134996 11.866734 1.256153
6.256342 11.889667 1.171674
3.054395 9.836408 2.009525
3.042765 9.809666 1.990538
2.968047 10.005336 0.750527
2.904233 9.840041 1.296918
3.072369 9.772241 2.104456
3.228065 9.820971 0.223686
3.333297 9.793238 0.157635
3.029754 9.929510 0.451382
2.957055 9.856680 0.854756
2.961829 9.975280 0.899928
3.000726 9.923564 0.578758
3.409266 9.862973 0.201784
2.909769 10.001439 1.143386
2.989198 9.920052 0.722548
3.037217 9.878192 0.378349
3.052981 9.869686 0.253766
2.927376 9.825051 1.116938
3.400683 9.818008 0.201947
3.032212 9.857356 0.485112
3.041516 9.845886 0.458523
3.335991 9.778426 0.171117
2.845992 9.382818 2.181599
2.994949 9.862362 0.711068
3.039532 9.822788 0.474962
2.923755 9.925672 1.112097
2.946180 9.684414 1.053521
3.040976 9.788292 0.462808
2.914687 9.928531 1.196516
2.959804 9.864432 0.933450
2.967667 9.846844 0.885900
3.039545 9.769738 0.496326
2.912036 9.920892 1.250139
2.955401 9.849643 0.963941
3.391718 9.435272 0.181540
3.741789 9.435921 0.132744
3.601265 9.433844 0.189698
3.011310 9.694393 0.600400
2.919803 9.840479 1.229249
2.962999 9.762742 0.972702
3.050527 9.394073 2.143192
3.330474 9.443443 0.162310
2.974736 9.446088 0.973106
3.029770 9.447731 0.551556
2.963220 9.697165 0.973969
2.925533 9.764624 1.176169
2.962718 9.687670 0.946057
3.051587 9.550373 0.409836
3.149487 9.460020 0.206357
2.911932 9.385332 2.194126
2.926723 9.738531 1.197527
3.049904 9.393524 1.915877
2.911659 9.507540 1.392750
3.071280 9.471268 0.364518
2.869698 9.383904 1.873419
3.048566 9.475998 0.560407
3.045912 9.449344 0.234778
2.832118 9.382958 2.069875
2.924552 9.684894 1.240242
2.964507 9.386180 1.901055
2.948259 9.601160 1.100094
2.921102 9.657524 1.261599
2.899498 9.387226 1.624876
2.906803 9.688259 1.389722
2.953136 9.521381 1.056873
2.858845 9.397932 1.640787
2.911422 9.618373 1.348537
2.830401 9.395191 1.699826
2.910453 9.605445 1.429281
2.736613 9.465433 1.021646
3.050721 9.452977 1.876625
2.904053 9.534069 1.382625
3.101628 9.391188 2.161101
3.026254 9.395720 1.827223
2.495731 9.373030 1.937377
2.418290 9.530169 0.574211
2.421329 9.451578 0.386828
2.551499 9.443144 0.362129
2.471805 9.440965 0.193150
2.466943 9.489946 0.630566
2.449961 9.429285 0.317181
2.525939 9.464862 0.576478
2.501486 9.489048 0.557914
2.171273 9.448042 0.556432
2.318589 9.555012 0.216930
2.261717 9.403166 0.648415
2.110780 9.362827 1.229426
1.896829 9.337696 1.578270
2.173985 9.384352 0.646075
2.178824 9.370031 0.896802
1.845113 9.342562 1.149862
1.777012 9.340205 1.204918
2.128536 9.360116 1.151023
1.844695 9.369155 0.159524
1.284127 9.319136 1.019282
1.777602 9.368115 0.154612
1.200792 9.365004 0.968692
1.520042 9.322142 1.547355
1.675284 9.323907 1.638802
2.010770 9.331092 1.375723
1.559721 9.315210 1.704944
1.087046 9.561297 1.791317
1.527644 9.347822 0.250128
0.967568 9.420348 0.372771
1.465878 9.336386 0.128542
1.202882 9.572317 0.969336
1.832157 9.342354 1.140593
0.118215 9.261971 0.915575
1.844054 9.326663 1.376657
1.221068 9.366680 0.709459
1.113996 9.329101 1.378136
1.197449 9.369659 0.948929
1.302520 9.311132 1.517705
1.297270 9.308345 1.927441
1.211253 9.645802 0.916906
1.096420 9.380651 1.485451
1.082988 9.615496 0.317441
1.190104 9.430729 0.980960
1.137678 9.426036 1.283056
0.844270 9.744677 2.091835
1.578750 9.362820 0.156020
1.219603 9.711686 0.905810
1.102886 9.459766 1.457204
1.687928 9.312599 1.541298
1.193751 9.503177 0.965838
0.999296 9.446941 0.434079
1.455746 9.345214 0.191821
0.411551 9.277601 0.806149
-0.002254 9.579250 1.062441
1.610893 9.296784 1.698280
-0.214739 9.579418 0.987806
1.112880 9.545940 1.374204
1.194555 9.572124 0.954497
0.967068 9.402468 0.088115
0.110139 9.273937 1.013332
1.040550 9.411117 1.777283
0.202644 9.711338 1.048749
1.217983 9.836535 0.898412
1.521424 9.300450 1.794855
1.244958 9.547740 0.715581
0.609007 9.364392 0.130472
0.710463 9.396046 0.521588
1.124659 9.628515 1.298054
0.565110 9.364095 0.050711
1.262312 9.679010 0.324611
1.190596 9.871591 0.418004
-0.025111 9.822861 1.062441
1.083562 9.537058 1.511978
1.456585 9.303884 1.944187
1.193904 9.879831 0.382897
1.206233 9.364238 0.887684
1.123842 9.697132 1.288347
1.205893 9.713598 0.400907
1.197183 9.713003 0.898292
-0.209865 9.479824 1.025989
1.259152 9.739903 0.324067
0.893162 10.061026 1.952607
1.086292 9.610373 1.493505
0.267412 9.955932 0.907085
1.103635 9.744912 1.400709
1.246137 9.676725 0.703139
1.153543 9.384714 1.212778
1.034797 9.755111 1.838111
1.159129 9.402882 1.158555
1.085310 9.663739 0.105495
1.200547 9.776435 0.400412
1.035099 10.057813 1.477560
-0.221246 9.612521 1.023772
1.175116 10.014337 0.997189
1.203488 9.794372 0.327332
0.796004 10.151827 2.066977
0.905683 10.018161 0.756678
1.075269 10.064738 1.289921
1.225629 9.729161 0.251508
1.206413 10.027568 0.867605
1.092947 9.811947 1.403277
1.260951 9.741280 0.693461
1.106928 9.821856 1.339228
1.190333 9.741080 0.438378
1.160104 9.476714 1.141183
1.073953 9.400428 1.591644
-0.106284 9.735964 1.055361
1.055388 9.713913 1.686520
1.225470 9.850292 0.360985
-0.226097 9.745243 1.021554
0.182460 9.273795 0.634415
-2.653471 10.459455 1.933554
1.034834 9.404752 1.820339
1.171195 9.778113 1.026057
1.097795 9.880058 1.395573
0.073229 9.675733 0.673232
1.103050 9.888909 1.339228
0.017072 9.851405 1.078320
1.074965 9.477884 1.567555
-0.124351 9.862065 1.058963
1.171944 9.565484 1.073949
1.051908 9.784205 1.680848
-0.235969 9.877424 1.022663
-0.220382 9.894706 0.944653
0.321331 10.344730 1.953619
0.269759 10.359732 1.916526
1.150474 9.585033 1.216946
1.048374 9.506988 1.707343
1.185404 9.949147 0.970982
1.114946 9.955878 1.329235
0.023511 9.971548 1.075741
1.144789 9.963554 1.256800
1.010439 9.976962 1.781550
0.195636 9.982506 0.958094
1.207022 9.965090 0.883824
0.306169 9.994974 0.866352
1.147465 9.877147 1.164092
1.148124 9.690864 0.184799
1.066939 9.877110 1.536156
1.170536 9.897094 1.062305
1.038570 9.560626 1.768713
1.147724 9.652945 1.207664
1.059632 9.584795 1.676482
1.133192 10.021374 1.316744
1.018245 10.028020 0.737833
1.242188 10.016941 0.903461
0.937277 10.054534 1.862684
1.044021 9.923969 1.680848
1.185664 9.941933 1.136711
1.205774 9.951138 1.080708
1.103230 9.955581 1.446004
1.268414 9.971852 0.717929
1.138763 9.718725 1.205344
1.058220 9.657178 1.662454
1.064336 9.676505 1.591682
1.076016 9.696539 1.519378
1.222315 9.794895 0.756917
-0.065459 9.698883 0.731203
1.200680 10.004281 1.127584
1.214753 10.012796 1.076295
1.297292 10.020512 0.740048
1.028207 9.705805 1.748636
1.046355 9.726807 1.662454
1.225869 9.834514 0.823590
1.053409 9.745811 1.591682
1.066053 9.765251 1.519378
1.238114 9.868505 0.714181
-2.731611 11.813974 2.058355
-2.699858 11.834235 1.904823
-2.425724 11.756008 0.675490
1.063295 9.817020 1.575232
-2.458087 11.967730 0.977757
-2.713725 12.132627 1.941819
-2.643484 11.398107 1.631108
-2.568503 11.104161 1.307820
-2.528078 11.131669 1.162207
-2.514533 11.164407 1.023865
-2.494930 11.562616 0.892540
-2.438096 11.583040 0.740070
-2.404728 11.606996 0.591775
-2.393293 11.640205 0.440936
-2.573189 11.368486 1.322359
-2.543012 11.397864 1.177024
-2.730948 11.877678 2.133314
-2.720060 11.908825 1.989603
-2.645427 11.957587 1.678624
-2.567647 11.637269 1.337706
-2.490038 11.687721 1.043160
-2.550875 10.916557 1.361602
-2.530891 10.953549 1.223161
-2.515826 10.989565 1.082941
-2.603124 11.888794 1.505578
-2.591489 11.926068 1.362746
-2.583829 11.136601 1.517585
-2.820455 12.564304 2.101280
-2.504138 11.244235 1.090764
-2.577070 11.446151 1.394968
-2.584752 11.533539 1.116841
-2.386929 12.501247 -0.068425
-2.349598 12.520447 -0.279507
-2.409912 12.780001 0.118589
-2.330187 12.820770 -0.291975
-2.365453 12.296448 0.019848
0.570132 12.760414 1.446451
-0.166646 13.905910 0.770888
-0.126361 13.909745 0.635659
-0.098415 13.915403 0.496766
0.979209 12.477133 1.953215
0.115119 13.871449 1.747600
0.120574 13.910964 1.635446
-0.639991 13.278245 0.141858
0.160096 13.896117 1.504047
0.167221 13.918962 0.489412
0.436291 12.491743 1.994109
-0.625724 13.867435 0.864815
-0.544692 13.873835 0.578444
0.558951 13.480236 1.666655
-0.510432 13.884555 0.432843
0.055392 12.716312 1.799340
-0.663124 13.607209 0.283853
0.087951 12.717909 1.689963
0.388534 13.925818 0.615079
0.601516 12.500733 2.038886
0.415901 13.927648 0.483355
0.427783 12.761176 1.429125
-0.356204 13.910853 0.848971
-0.262351 13.892039 0.568106
-0.230578 13.903595 0.427084
-0.565643 13.866931 0.285124
-0.573988 13.874874 1.267434
-0.527114 13.865105 0.133787
-0.485319 13.868446 -0.036171
-0.492753 13.881186 0.993113
0.566231 12.861067 1.430415
0.549672 12.903378 2.137764
-0.801053 13.194322 0.349747
-0.839500 13.210754 1.260649
0.537601 12.963472 2.062961
-0.030913 13.907676 0.693212
-0.046592 13.909424 1.598020
0.473660 13.108286 2.034857
-0.774455 13.246694 1.006665
0.794214 13.935490 1.776089
0.039627 13.911832 0.421637
-0.337060 13.900072 1.370595
1.055827 13.373747 0.654093
0.838359 13.939613 1.546424
-0.247529 13.885342 0.136964
-0.249602 13.894260 1.101526
0.528870 12.754198 1.502225
-0.206606 13.886205 -0.027884
-0.595973 13.225263 1.345841
-0.145121 12.681286 1.899709
0.185673 13.923951 0.813819
0.172243 13.926338 1.690597
-0.622203 13.382563 0.207635
-0.678026 13.426241 1.145324
-0.072824 12.701599 1.678254
-0.724232 13.531275 1.035350
0.296320 13.917456 0.416812
-0.062412 13.911297 1.337076
0.583092 12.891286 1.724566
-0.026923 13.918277 1.210085
0.022446 13.894738 0.139969
0.021662 13.902187 1.076125
0.633284 12.903385 1.527111
0.054694 13.909012 0.949699
0.675337 13.389416 1.567126
0.118903 13.855827 -0.194119
0.554882 13.695340 0.766785
0.753232 13.313046 2.162429
0.777853 13.318591 0.605258
0.151589 12.719595 1.626837
0.806463 13.315886 0.497098
1.230584 13.958120 1.730714
-0.588224 13.789371 -0.148447
1.228248 13.965660 0.823304
1.250725 13.955079 1.620303
0.241270 13.913512 0.281421
1.271000 13.966654 1.510584
1.021659 12.492081 1.998879
0.273672 13.917469 1.055663
0.306431 13.918776 -0.014445
0.312223 13.911447 0.930404
0.343390 13.910188 -0.188074
-0.499165 13.891144 1.323959
-0.429806 13.884363 0.205764
-0.455434 13.897413 1.188399
-0.393895 13.885900 0.040426
1.437998 13.977673 1.717368
-0.354392 13.876198 -0.142786
1.466326 13.972509 0.703200
1.119108 12.641255 1.437028
1.507623 13.965450 1.381891
-0.265585 13.904108 1.425034
0.676884 13.721931 -0.157848
0.509864 12.768997 1.652806
0.924450 13.966116 0.656725
0.913925 13.961977 1.486053
1.306700 12.412333 2.142944
-0.132022 13.910814 1.025571
0.987497 13.960841 0.407162
1.670207 13.989758 0.700103
1.686349 13.982394 1.485149
0.998984 13.357953 0.908194
0.011515 13.904634 1.387823
0.068329 13.917858 0.350507
0.055618 13.909056 1.258938
0.114687 13.905083 0.207747
0.094522 13.915224 1.132477
0.144922 13.909318 0.051695
0.133365 13.917857 1.003406
0.865099 13.956125 2.192492
1.865891 13.993352 1.587854
0.942219 13.947096 0.278989
1.029829 13.714072 1.074386
0.970561 13.944140 0.148040
1.911424 13.998774 1.370207
0.540397 13.264475 2.031250
1.004959 13.943712 0.891211
0.597216 13.234003 1.899709
1.041539 13.916960 -0.161626
1.325182 13.985570 0.765300
0.611859 13.277124 1.807427
0.341766 13.933292 1.112073
1.383846 13.988214 0.526208
2.048829 13.999802 1.686673
0.421795 13.917933 -0.113534
2.066409 14.003225 1.582862
2.173613 13.500529 2.106116
2.074455 14.001640 0.694794
2.088379 14.005903 1.474744
2.105796 13.995697 0.579563
2.112003 14.006176 1.365958
1.228971 13.921434 0.005714
0.899844 13.231995 0.326772
1.173773 12.448522 1.981235
0.928179 13.233185 0.214560
1.714578 12.446652 2.063084
1.582378 13.985943 1.323770
1.518136 13.225898 1.784901
1.626237 13.970948 0.400625
1.335002 13.980541 1.217493
2.347782 13.521716 2.111665
2.311266 13.511269 1.320979
1.395894 13.971550 0.150273
1.397090 13.978378 0.990043
1.242282 12.491869 2.167583
2.327077 14.017990 0.461291
0.685974 13.943802 2.159239
1.367567 12.578655 0.308070
0.939473 13.565251 1.103232
1.759324 13.999603 1.430623
1.799747 13.984991 0.519951
1.785239 14.001907 1.317704
1.579532 13.972047 0.277537
1.564309 14.003641 1.888487
1.369963 12.546076 2.165337
1.632990 13.987964 0.871313
1.013447 13.964012 0.341772
0.992797 13.955137 1.878210
1.986592 14.015464 1.313660
1.746250 14.011293 1.202999
1.783233 13.979521 0.277246
1.806070 13.990688 0.151732
1.808349 13.994513 0.977342
1.800229 14.003944 1.759371
1.836308 13.997003 0.867092
2.108411 14.030188 1.640640
1.230901 13.969552 0.340253
1.214861 13.973936 1.166541
1.163041 13.987692 1.984786
1.262950 13.967915 0.210595
1.203296 13.983624 1.862499
2.806427 13.124418 2.101841
2.187887 14.015236 1.308605
1.914691 14.017044 2.097168
1.330757 13.907894 -0.086170
1.948258 14.026657 1.199375
2.830082 13.114327 1.908223
1.978112 14.025751 1.089733
1.973928 14.006813 1.862017
1.630441 12.544205 2.193893
2.912626 14.026336 1.373394
1.517664 13.240410 1.840655
2.038060 13.999851 0.863474
1.388849 13.813037 2.000638
2.343782 14.008963 0.748466
2.361729 13.536384 2.066578
2.373938 13.970671 0.629455
2.384769 13.545693 1.967550
2.922848 13.112520 1.375718
3.031974 13.889973 0.792085
2.159995 13.838190 1.895922
2.197101 13.707483 1.735550
3.071875 13.787546 0.564626
2.973277 13.112394 1.125895
3.089559 13.760282 0.449826
1.595605 13.996693 1.260923
1.631752 13.997465 1.148575
1.586205 13.998922 1.943857
1.709181 13.958742 0.072600
2.574683 13.551971 1.185266
2.335836 13.538613 1.865433
1.625369 13.964867 0.338070
1.602999 14.011789 1.155419
1.553321 14.034607 1.965079
1.639606 13.992680 1.039527
2.574353 13.977062 0.518591
2.567537 14.063053 1.329836
2.295572 13.758654 1.980479
3.281268 14.103473 1.655247
2.354341 13.563896 0.996036
2.349159 14.037258 1.876723
2.379099 13.542788 0.893377
1.682992 14.033728 2.188111
3.342862 14.089396 0.473404
1.718731 14.046803 2.074331
1.822882 13.982766 0.337785
1.804822 14.015488 1.149430
1.838118 14.006080 1.036504
2.664975 13.157840 1.807049
1.869444 14.005661 0.923219
2.493128 14.080868 2.126752
3.422022 13.903109 0.813446
3.496608 14.078337 0.722666
3.523924 14.119843 1.563766
3.538037 14.107901 0.604458
2.579292 14.090604 1.787021
3.555073 14.078851 0.475784
1.968816 14.028715 1.259015
2.018877 14.011041 0.337975
2.792218 13.151475 1.273911
2.067643 14.015827 0.921915
3.698295 14.114857 0.852333
3.719443 14.117369 1.697680
2.756748 14.060635 1.102656
2.785219 14.059052 0.990043
2.813510 14.062222 0.879151
3.132263 14.112612 1.589728
3.161765 14.115343 1.479401
3.187326 14.109314 1.362187
2.801741 13.153314 1.004601
3.960166 14.126880 0.743901
3.994131 14.122606 0.617735
2.286780 13.853680 2.080163
2.863925 13.113643 0.736850
2.320036 14.075265 2.066321
2.393889 13.554061 1.040778
2.356501 14.076164 1.951436
3.316721 13.880839 1.422863
3.408468 14.094131 0.535186
3.333883 13.846273 1.303550
3.108136 14.109611 2.169483
3.144208 14.111322 1.237424
4.203579 14.143112 0.755846
3.734514 13.042090 1.278202
2.993891 13.090857 0.170021
3.198712 14.082626 1.005566
3.198004 14.112930 1.824349
3.010883 13.058410 0.058798
3.227730 14.079301 0.891814
3.540431 14.138903 1.741238
3.318076 13.247298 0.675192
3.567891 14.142521 1.630556
3.335421 13.220234 0.574532
3.598614 14.143084 1.517093
3.357460 13.217804 0.476693
3.622271 14.127872 1.394539
3.114746 13.229761 1.781614
3.354575 14.105967 1.246483
3.975042 13.070506 2.100568
4.458186 14.155834 0.769118
3.160123 13.216784 1.591436
4.498743 14.158806 0.637650
3.399948 13.093367 2.145282
4.528673 14.158728 0.499362
2.767670 14.066998 1.269510
3.437597 13.136939 2.073497
3.800103 14.135183 0.798966
3.463854 13.149036 1.983388
2.696917 13.166016 1.496866
3.861077 14.126808 0.546341
4.090405 13.072239 1.522521
4.669099 14.126192 0.907103
3.575308 14.143179 2.109338
4.729792 14.174490 0.785045
4.776232 14.181845 0.650264
3.634998 14.129938 1.869971
4.804271 14.177134 0.507366
3.587923 13.070898 2.067827
2.856802 13.123171 0.955225
3.621233 13.098195 1.987005
2.882447 13.124444 0.869495
3.638468 13.083084 1.884711
2.905238 13.112207 0.779143
4.301916 13.084404 1.563893
4.987504 14.202242 0.938322
3.831673 14.114178 0.280586
4.412237 13.089002 2.113976
5.073560 14.207949 0.664869
4.358943 13.067026 1.274607
5.107391 14.207922 0.517316
3.749734 13.051177 1.416228
3.781710 13.100348 2.122642
3.064936 13.288300 0.322310
3.219798 14.085111 1.176807
3.211440 13.838641 0.211824
3.254935 14.088556 1.065220
3.217704 14.115507 1.886780
3.236545 13.837878 0.074886
3.286481 14.082113 0.948644
5.228192 14.117043 0.946538
4.070708 14.121634 0.281421
3.647259 13.088737 0.950803
5.386429 14.219416 0.680137
3.658076 13.066124 1.503608
3.853396 13.456168 0.023184
3.686763 13.060150 0.763983
3.948261 13.069982 1.451051
3.981241 13.114268 2.175568
3.449359 14.080271 0.342722
3.967353 13.060976 1.359169
3.478508 14.069470 0.209813
3.343274 13.610442 0.979827
3.506252 14.070642 0.062964
3.295861 13.331299 0.828689
4.658357 14.166471 0.429108
3.789175 13.053353 1.047179
4.330863 14.151845 0.282619
3.818180 13.056770 0.958880
3.808033 13.047930 1.613494
5.042500 13.358296 0.605453
3.837000 13.052440 1.525728
5.052364 13.331221 0.476865
3.629526 14.122566 1.324850
3.584991 14.143301 2.173657
4.839584 14.203704 0.860854
4.177136 13.077072 1.395194
3.429925 13.236878 0.215482
3.641538 13.923590 1.053885
4.241505 13.118191 2.027954
4.913858 14.195896 0.581437
4.231610 13.074702 1.205485
4.951268 14.191826 0.435645
3.993631 13.079304 1.073451
3.996109 13.095006 1.761953
5.281115 13.359020 0.745228
4.483117 13.891306 0.142717
4.045209 13.068262 0.884910
4.040662 13.071748 1.565821
5.358562 13.357452 0.488546
4.372027 13.090074 1.528434
3.908052 14.102375 0.346519
4.400489 13.092826 1.436022
4.405809 13.080297 2.162429
5.194572 14.236466 0.740838
3.525402 13.125094 1.553996
5.224776 14.221331 0.594224
5.661370 13.485640 1.969602
5.260927 14.211658 0.442804
4.205908 13.095943 1.100629
5.708873 13.466398 1.720999
4.523399 13.528304 0.149070
5.734706 13.452551 1.593274
4.475669 13.391850 0.010417
3.654854 13.058353 1.080592
3.621751 13.076897 1.737904
4.155724 14.123871 0.349178
4.853703 13.407587 1.598134
4.186398 14.111883 0.207886
3.710826 13.046300 0.900479
3.678774 13.056650 1.551139
4.908529 13.386806 1.371286
3.919235 13.390450 -0.062266
4.434220 13.115539 1.132336
4.428435 13.116464 1.861651
5.996113 13.434848 0.805838
5.815746 13.236710 1.694408
6.029619 13.414077 0.664205
5.834481 13.216238 1.566718
4.231013 12.675631 0.051630
5.246871 14.168335 1.027483
5.091392 13.410881 1.759295
4.227095 12.632718 -0.075105
5.214670 13.507132 0.815305
5.121647 13.406460 1.648569
5.184381 13.417036 0.676313
5.158674 13.403924 1.537048
4.140018 13.458525 0.077009
3.932377 13.056347 0.824126
5.809762 12.979409 1.881520
4.089822 13.312885 -0.062580
4.664155 13.113873 1.162232
4.813364 13.330851 2.028334
5.870846 12.972530 1.652787
5.010308 13.491018 0.143919
5.896062 12.958684 1.531665
3.969851 13.090507 1.906436
5.679964 12.750164 0.477730
5.670628 13.748137 1.973389
4.692471 14.168707 0.355728
4.078571 13.076961 1.033078
4.047157 13.100019 1.725569
5.869423 13.853773 0.751208
5.719196 13.705188 1.707770
5.876384 13.810410 0.599393
3.907057 12.618399 -0.007537
5.118120 13.381961 2.123358
5.204610 13.428212 1.176968
5.223277 13.405949 0.142545
5.550188 13.811322 2.103614
5.726788 13.446728 1.910192
5.355311 13.467902 -0.203187
5.903995 13.571847 0.878182
5.766028 13.445502 1.791467
5.944082 13.560406 0.735461
5.796416 13.428586 1.664536
4.332180 13.043083 0.854766
4.117772 12.662999 -0.019175
5.579877 13.512245 0.284035
5.843778 13.755291 1.173496
4.402621 13.118333 2.017756
4.459181 13.142802 1.933352
4.527790 13.109032 1.090399
4.341014 12.699709 -0.031441
5.009029 13.432234 1.209317
5.756272 11.814993 0.451989
2.757916 9.932588 1.374354
2.696235 10.027157 0.644691
5.705947 12.427612 0.278190
2.782235 9.992167 1.061636
2.756037 9.990174 0.975350
2.670073 9.999567 0.642510
6.231150 12.279025 0.679769
2.727500 9.988943 0.861494
5.705502 11.927166 0.507708
5.727950 11.909417 0.393309
2.740701 9.863456 1.490170
3.615841 10.625371 1.069497
5.764153 12.153861 0.010193
3.676656 10.626591 0.966572
2.757091 10.102139 1.063717
2.749618 10.081160 1.392975
2.756588 10.097064 0.977068
5.808453 11.947483 0.014225
6.182631 12.136501 -0.181651
5.730043 12.579741 0.209841
2.739279 10.053341 1.523475
6.096737 11.702253 1.327814
2.759456 10.078588 1.049755
6.172186 11.991117 1.964956
2.745749 10.065711 0.906217
2.777531 10.082717 0.735498
5.762721 12.343627 0.210651
6.059219 11.465602 1.293441
2.739029 10.031713 1.403439
6.144008 11.766825 1.224741
2.755467 10.051169 0.983988
3.879050 10.628514 0.866274
2.756374 10.107919 1.224533
2.761080 10.098165 0.882605
2.764401 10.101669 1.124010
5.754425 11.133578 0.487304
6.162873 11.549568 1.207528
6.190141 11.497203 0.986515
5.851888 12.064338 2.042290
5.881265 11.997252 1.812510
6.212173 11.319446 1.089733
3.756295 10.693419 0.993944
6.146541 11.900990 1.181085
6.168265 11.874219 1.068243
6.141868 11.706853 1.273327
2.876670 9.841533 0.429509
3.199875 9.716542 0.337329
4.253574 9.487334 0.829625
3.302824 9.823942 0.542608
3.924151 9.476324 0.733666
3.240495 9.850060 0.376875
4.283756 9.627544 0.751556
4.260693 9.983735 0.660066
2.884375 9.937093 0.573161
2.911391 9.923791 0.457095
4.036364 9.677252 0.636795
3.116797 9.790780 0.247079
3.574304 9.431202 0.349536
3.322993 9.901822 0.480442
2.840447 9.439184 2.084263
2.770918 9.524571 1.689218
4.170456 9.470352 0.780991
3.393685 9.877069 0.413412
2.782623 10.003452 1.225612
4.299690 9.545173 0.702022
3.319397 9.465661 0.297756
3.178563 9.850385 0.259842
2.747321 9.840298 1.587835
3.246886 9.636463 0.330642
3.293021 9.832514 0.397114
2.831012 9.934248 0.967261
4.215631 9.464962 0.686621
3.837929 9.540883 0.556630
2.917607 9.849989 0.491520
2.756796 9.434002 1.934018
3.312429 9.790818 0.427413
2.787203 9.973814 1.283198
3.119731 9.800841 0.178352
2.802243 9.936234 1.137014
4.166912 9.636965 0.692259
3.177931 9.767955 0.260032
3.513098 9.431838 0.361369
3.128392 9.764949 0.207500
3.270518 9.742176 0.395158
2.795248 9.925423 1.172179
2.871403 9.840779 0.761847
3.620239 9.437601 0.446820
4.305171 9.501262 0.678032
3.380441 9.427806 0.568142
3.354182 9.428603 0.315905
2.851775 9.843769 0.932120
4.125211 9.461863 0.690351
3.161319 9.687060 0.260032
3.132937 9.688324 0.234303
3.548141 9.572164 0.446009
2.879673 9.772210 0.735157
3.490618 9.536203 0.471243
3.165931 9.416415 0.488701
2.767517 9.607228 1.568347
3.619715 9.449574 0.572039
3.596903 9.434359 0.496937
3.569761 9.433900 0.456440
2.816413 9.538794 1.892912
3.137159 9.420333 0.381096
2.946062 9.472874 0.471759
2.960033 9.456724 0.458392
2.874919 9.451945 2.171535
2.980520 9.426629 0.270818
2.758196 9.549694 1.639242
3.348039 9.430387 0.511928
2.801314 9.818229 1.316257
2.817946 9.458407 1.911628
2.813532 9.773710 1.186848
3.234647 9.428897 0.487121
2.813275 9.446015 1.342205
2.791919 9.439902 1.896702
2.817113 9.438017 1.299747
2.794495 9.773149 1.323604
2.749494 9.440754 1.941859
2.793661 9.884089 1.862832
2.927031 9.522804 0.542785
3.023816 9.431280 0.234247
2.830834 9.859159 2.001602
2.855666 9.609844 0.999882
2.775075 9.460768 0.181815
2.941714 9.454667 0.524223
2.894899 9.468562 0.184957
2.862314 9.831114 2.124953
2.923280 9.417729 0.257848
2.648152 9.431869 1.918390
2.643719 9.439523 1.764896
2.809757 9.641888 1.275837
2.904775 9.407931 0.565213
2.521240 9.427512 0.805423
2.521744 9.426173 0.782521
2.809181 9.611814 1.304314
2.834302 9.403231 0.256519
2.587342 9.431168 1.827256
2.821980 9.403906 0.353435
2.794319 9.624700 1.389274
2.607102 9.428950 1.149319
2.529686 9.414831 0.494578
2.586864 9.431490 1.507563
2.791684 9.411488 0.402203
2.688746 9.442657 2.127735
2.672374 9.423836 1.329101
2.559553 9.430116 1.793081
2.804546 9.399803 0.722672
2.748399 9.401143 0.255190
2.630065 9.438511 1.261916
2.620165 9.416367 0.489814
2.730572 9.404509 0.190618
2.558516 9.416134 0.405714
2.645184 9.407252 2.143051
2.541152 9.443638 0.476438
2.538409 9.441932 0.273736
2.573349 9.430323 0.244719
2.673743 9.400700 0.254146
2.775849 9.527247 1.558691
2.730077 9.455521 1.113378
2.650982 9.417367 0.504808
2.631578 9.420295 0.452810
2.777278 9.461284 1.582033
2.480677 9.510287 0.201084
2.493027 9.448568 1.960276
2.123188 9.414522 1.791765
2.454991 9.440765 2.138803
2.283426 9.558123 0.645559
2.233730 9.458604 0.952692
2.081993 9.410251 1.749967
2.030313 9.414031 1.924233
2.358738 9.441428 0.445439
2.313783 9.468841 0.567608
2.311280 9.471466 0.550798
2.302687 9.415938 0.272919
2.288744 9.469645 0.932911
2.400575 9.427616 0.446663
2.318760 9.411881 0.193906
2.326054 9.460992 0.817679
2.394268 9.446952 0.562555
2.340995 9.415971 2.185400
2.369153 9.409252 0.346941
2.370603 9.471053 0.543990
2.401152 9.460752 0.809911
2.549817 9.430839 2.078696
2.183652 9.404104 0.199111
2.162174 9.385280 0.358919
2.162509 9.401887 0.580929
2.163067 9.395570 0.764652
1.647282 9.359834 1.323822
2.059146 9.407043 2.116247
2.087506 9.372335 0.336485
2.091976 9.390025 0.195336
2.152459 9.389336 0.942891
1.561668 9.353030 1.413881
2.023413 9.403222 2.189000
1.448614 9.361313 1.884933
2.109210 9.388220 0.816494
2.081712 9.390838 0.646094
2.084447 9.385452 0.756569
2.038803 9.383062 0.468521
1.912463 9.371367 1.099403
1.625656 9.362500 0.363781
1.880126 9.367603 0.246389
2.089581 9.382055 0.984051
1.782952 9.365644 0.802732
2.088850 9.378984 1.100094
1.723750 9.367770 1.551097
1.726135 9.360984 1.139677
2.013397 9.378138 0.794040
1.236302 9.345675 1.697574
1.937632 9.363278 0.350827
1.810576 9.363327 1.193498
2.002304 9.374320 0.882461
1.664032 9.366857 1.700421
1.680673 9.361528 0.953887
1.655159 9.365139 1.639409
1.766229 9.362110 0.381118
2.021166 9.378222 1.031544
1.080410 9.344945 1.938712
1.068421 9.338116 1.880533
1.079657 9.342512 1.795661
1.073547 9.339833 1.735599
1.171523 9.331706 1.210998
2.004593 9.370831 1.129710
1.952306 9.371214 0.885294
1.583200 9.366818 1.731118
1.569116 9.346285 0.965592
1.675029 9.350189 0.158012
0.868468 9.334729 2.100084
1.856193 9.363833 0.379048
1.702048 9.360579 1.347485
1.027102 9.339903 1.306663
1.484528 9.359083 1.870380
1.865587 9.365967 0.725266
1.943533 9.375573 1.091701
1.888032 9.371836 0.866306
1.590884 9.341719 0.151212
1.653962 9.367667 1.447319
1.815293 9.363781 0.527080
0.897866 9.427128 1.879294
1.943569 9.375242 1.219644
1.786217 9.361112 0.178981
1.424184 9.359482 1.523359
1.417976 9.373915 2.041415
0.891867 9.310593 0.712856
1.395953 9.367787 1.985865
1.385684 9.368400 1.913911
1.372587 9.337716 0.841085
1.377316 9.354726 1.404855
1.766436 9.360426 0.562884
1.363055 9.345825 1.059376
0.867320 9.497190 2.042147
1.325664 9.328087 0.352535
1.345706 9.335849 0.570359
1.521374 9.357430 1.143791
0.695568 9.305804 0.482085
1.505701 9.355690 1.116134
0.852337 9.402529 1.014341
1.811956 9.368779 0.977880
1.866332 9.371977 1.202529
1.269130 9.343866 1.206821
1.850282 9.371542 1.174021
0.629460 9.319331 0.337991
1.242695 9.333178 0.903461
1.389193 9.329153 0.134587
1.692564 9.360525 0.424795
0.857081 9.571728 2.032999
1.683888 9.364884 0.234080
1.659295 9.350560 0.384728
1.447251 9.360497 1.560470
0.330951 9.293830 0.930151
1.770365 9.367610 1.043076
1.830935 9.368416 1.286718
1.326579 9.331855 0.250564
1.298884 9.324561 0.214413
1.121091 9.341484 1.314246
1.795298 9.367435 1.227846
1.299406 9.334998 0.420892
1.680068 9.361231 0.791567
1.723149 9.365382 0.976044
1.239463 9.311175 0.121363
1.069553 9.326371 0.679502
1.603718 9.357736 0.233605
1.037745 9.326848 0.921701
1.361459 9.362174 1.720902
0.979697 9.311972 0.341207
1.268690 9.340075 1.040990
1.791188 9.362164 1.385686
1.283172 9.350624 1.287666
1.767028 9.357967 1.361950
1.210850 9.335474 0.739987
1.641652 9.362109 0.868866
1.687816 9.361976 1.073272
1.622262 9.359192 0.851075
0.909205 9.339903 1.932813
1.141119 9.323761 0.443202
1.078139 9.398108 0.969618
1.650924 9.359937 1.029574
1.292668 9.368222 1.955005
0.858370 9.317179 0.741945
1.584238 9.354633 0.814126
0.842716 9.719604 2.020802
0.807701 9.309422 0.714476
0.867536 9.722014 1.915327
0.728333 9.295818 0.357530
1.194927 9.354072 1.845892
1.064745 9.328502 0.831957
0.982724 9.306507 0.253468
1.605085 9.352387 1.143412
1.680843 9.354168 1.402117
1.074223 9.457800 1.000537
0.888809 9.412363 1.926895
1.019689 9.343568 0.458879
0.892951 9.401330 0.762338
1.559746 9.348438 1.101840
0.852390 9.284026 0.086982
0.878850 9.406203 0.726334
1.097905 9.483692 0.905526
1.099801 9.357808 2.122379
1.420287 9.337997 0.652766
0.858100 9.794169 1.918319
0.847794 9.417491 0.650458
0.968108 9.339424 1.603805
1.041333 9.357680 2.021536
1.354550 9.330088 0.150044
1.542555 9.350261 1.238109
1.031969 9.713331 0.640020
1.456962 9.349343 0.982572
1.515237 9.346551 1.219164
1.603585 9.349085 1.489034
0.873163 9.351170 0.817886
1.005014 9.512302 1.354218
1.580678 9.350884 1.455811
0.871518 9.364552 0.478777
1.076176 9.535621 0.946936
0.587801 9.273720 0.063179
1.375464 9.339598 0.927275
0.160494 9.304585 1.322092
0.187290 9.327185 0.392082
0.894460 9.867938 1.803048
0.284610 9.367867 0.322803
0.853592 9.754307 0.731717
0.975690 9.430127 1.509339
1.556115 9.352631 1.600733
0.891059 9.765824 0.680484
0.869858 9.552886 1.982134
0.882986 9.437752 0.514475
1.229966 9.327397 0.821903
1.376116 9.336820 1.292832
1.491007 9.348100 1.553962
0.835763 9.434166 0.480586
-0.158508 9.308213 1.115722
1.014193 9.593426 1.281067
0.908933 9.580183 1.784448
1.123323 9.316064 0.536014
0.835505 9.941285 2.017753
1.140775 9.321534 0.749888
0.956844 9.487694 1.568627
0.983336 9.506074 1.482949
1.465823 9.351846 1.708676
1.062738 9.545535 1.034266
1.286532 9.335429 1.418364
1.423072 9.346251 1.695061
0.957852 9.845722 0.355511
1.137010 9.322061 1.147627
0.891828 9.640964 1.861786
1.078093 9.667194 0.929924
0.911478 9.653442 1.767062
0.934126 9.308679 0.574513
1.080203 9.326366 1.092807
0.973849 9.666262 0.374043
1.022002 9.670811 0.626897
0.853760 10.013284 1.924302
1.413601 9.359164 1.840639
0.769812 9.280398 0.106638
0.881074 9.695588 2.018852
1.048111 9.339701 1.244793
1.149405 9.335621 1.539006
1.317665 9.349433 1.817389
0.859063 9.312665 0.982137
1.000268 9.717494 1.324239
0.889062 9.713224 1.852908
0.810857 9.309402 0.957712
1.048983 9.327173 1.514025
0.645743 9.290276 0.282817
1.053835 9.388789 1.092807
0.968828 10.012040 1.420362
0.691695 9.315134 0.577041
0.732147 9.311609 0.895570
1.007578 9.747359 0.331685
1.067604 9.750471 0.575645
1.281371 9.350165 2.019964
0.992576 9.754988 0.292919
0.579276 9.987676 0.820326
1.061624 9.676899 1.017847
1.000169 9.775440 1.369894
0.869369 9.775016 1.942883
1.018204 9.685851 0.480606
1.043088 9.426848 1.179079
0.952767 9.344484 1.649259
1.130481 9.347537 1.965565
1.018879 9.695198 0.444408
1.075760 9.792985 0.922363
0.956066 9.365611 1.578261
0.812463 9.427308 0.590768
0.948968 10.082693 1.443761
1.071682 10.035268 0.983130
1.046521 9.811991 0.579689
1.154416 9.356622 2.186005
-0.079581 9.593434 1.272810
0.982532 9.714641 1.446004
0.863292 9.839116 2.025007
1.059218 9.740641 1.013743
0.933769 9.395674 1.712955
-0.330692 9.599849 1.231255
0.943973 9.418759 1.632808
0.948221 9.345497 2.184031
1.049164 9.513952 1.112953
-0.207343 9.821313 1.043352
1.015432 9.866887 1.207711
-0.019487 9.291930 1.172651
0.185524 10.298276 2.035119
1.040046 9.875415 0.580700
0.125958 10.314959 2.002861
1.051535 9.794176 1.055914
0.918659 9.448145 1.777317
1.059960 9.804089 1.009638
0.938259 9.473392 1.684899
0.086580 9.372527 1.317786
1.010321 9.915430 1.306751
0.877819 9.927752 1.852908
1.027934 9.923229 1.244666
0.896961 9.936197 1.761266
1.031708 9.931405 1.195939
0.118547 9.960759 1.304834
1.075360 9.938019 0.571601
0.405292 9.548541 0.084621
0.902968 9.981647 1.978843
-0.210948 9.846194 1.250268
0.846417 9.993102 1.967038
0.077928 9.486022 1.311039
1.037009 9.631820 1.145380
0.946507 9.567691 1.591682
1.056163 9.985744 1.225252
0.881355 10.008307 1.781550
-0.143861 9.491403 1.272319
1.073647 9.992564 1.167684
-0.274048 9.493599 1.252634
1.069378 9.901933 1.125303
1.049798 9.720431 0.455788
1.089726 9.911051 1.069675
1.047067 9.927379 0.541673
1.108595 9.919683 1.017568
0.925312 9.598570 1.731427
0.821614 10.069696 2.003269
1.024691 10.044801 1.301754
0.834372 10.077063 1.912097
1.033613 10.051913 1.247093
0.852968 10.084090 1.819219
1.114956 10.045129 0.867547
0.943404 9.952561 1.649648
0.955523 9.963251 1.575909
0.262408 10.030196 1.180089
0.970502 9.972873 1.503684
1.000036 9.980893 1.422253
1.023270 9.747250 1.186779
0.935471 9.707585 1.577973
0.951353 9.727264 1.503319
-0.149405 9.737538 1.263224
-2.860431 11.764631 2.055859
-2.617892 11.688359 0.827074
0.919635 9.758121 1.648425
-2.803639 11.809421 1.752608
0.992395 9.879580 0.572039
-0.154220 9.859536 1.263224
-2.597996 11.922933 0.978304
-2.843197 12.082907 1.939507
-2.880035 12.370939 2.138228
-2.765790 12.387091 1.805719
-2.846982 11.539760 2.094623
-2.829798 11.568162 1.951177
-2.812144 11.601305 1.806435
-2.771239 11.623511 1.650317
-2.441981 11.316558 -0.039979
-2.656723 11.799670 0.907393
-2.812382 11.885726 1.834149
-2.653352 11.612923 1.186902
-2.874261 12.129320 2.173296
-2.803957 12.177269 1.864081
-2.804184 12.216171 1.715019
-2.735590 11.840849 1.504672
-1.844463 12.786535 0.515586
1.102986 10.200737 0.519759
-2.754124 11.497658 1.122708
-2.750809 11.637444 1.562430
-2.572193 12.709209 0.291404
-2.480698 12.239836 0.020828
0.153188 12.645482 2.072826
-0.375635 13.912562 0.910389
-0.335142 13.937269 1.703657
-0.298935 13.932946 1.568843
-0.801295 13.546163 0.704734
-0.844370 13.644804 0.575451
0.504070 12.922169 1.493161
-0.100044 13.915371 0.890124
-0.070499 13.923563 0.762482
0.386154 13.299264 2.174085
-0.036535 13.935332 0.630348
-0.726043 13.226453 -0.013997
-0.839278 13.351669 0.956332
-0.479036 12.997451 -0.157848
-0.023976 12.874120 1.437223
-0.791667 13.894794 1.705553
-0.730517 13.890954 0.583613
-0.683855 13.886223 0.435022
0.189096 13.924541 0.748325
-0.115153 12.752151 1.729668
-0.733275 13.527040 0.137822
-0.924899 13.758537 1.146684
0.402572 12.543982 2.097995
0.252338 13.932460 0.486167
-0.530475 13.916649 0.856398
-0.482926 13.910551 0.713568
0.307644 12.788183 1.931308
-0.445219 13.911839 0.573275
-0.401817 13.907351 0.429263
-0.828418 13.919916 1.431292
0.526280 13.733999 0.712490
-0.693445 13.857077 0.132842
-0.727574 13.907366 1.145272
-0.646553 13.854263 -0.038187
-0.689532 13.914046 1.007585
0.379074 12.912535 2.169897
-0.253343 13.932121 0.838574
-0.281732 13.955958 1.761446
-0.914089 13.172334 0.207747
-0.980557 13.221697 1.144568
-0.854983 13.152451 0.053492
-0.935090 13.225822 1.011881
0.622237 13.971277 1.805450
-0.131428 13.920954 0.423971
-0.535444 13.939980 1.394149
0.810407 13.590584 0.685061
0.676827 13.952188 1.563766
-0.436222 13.919830 1.116343
-0.370944 13.880131 -0.030348
-0.901753 13.360784 1.405951
-0.386565 12.747538 1.965393
-0.738774 13.266126 0.348418
-0.906856 13.426241 1.290593
0.055784 13.931763 0.687451
0.022169 13.966168 1.591369
-0.805370 13.423244 1.021008
0.849249 13.979708 1.778758
0.127787 13.928499 0.419146
-0.248307 13.941337 1.357006
-0.179462 13.899739 0.282946
0.893569 13.981883 1.548736
-0.144628 13.896906 0.138853
-0.163670 13.933790 1.091648
0.467603 12.907072 1.546466
0.942306 13.968149 0.473188
0.522555 13.375418 1.577443
-0.764482 13.646668 0.355633
-0.965932 13.862822 1.371013
-0.725710 13.654301 0.206127
-0.921991 13.873244 1.229962
-0.695216 13.663705 0.042223
0.375513 13.836802 1.390495
-0.568465 13.546854 -0.128317
1.073187 13.974970 0.830424
1.089825 13.984279 1.644015
0.080008 13.910242 0.281820
0.055846 13.949764 1.199584
1.332344 13.444140 2.057404
1.134681 13.974746 0.594168
1.141712 13.977146 1.411634
1.160681 13.970396 0.469727
-0.718677 13.882765 1.474649
-0.654363 13.896430 0.358671
1.079875 12.671130 1.199460
-0.646571 13.923983 1.205024
0.172966 12.761554 1.613983
1.168673 12.588769 0.440237
0.730865 13.563398 1.286364
1.186789 12.597250 0.354398
0.644360 13.224349 1.108782
0.986245 12.522213 2.099772
1.316860 13.971604 0.707624
1.325874 13.996161 1.515208
1.350447 13.966997 0.588857
1.353358 13.986036 1.398887
0.393447 13.917823 -0.010637
0.700407 13.288116 0.814633
0.688810 13.985806 1.742528
-0.372548 13.915553 0.355159
-0.407004 13.937578 1.310270
0.325672 12.794699 1.686156
-0.358881 13.934705 1.174796
0.368208 12.787085 1.578276
0.800130 13.963709 0.536547
0.784584 13.970342 1.379374
0.712621 13.437618 1.996914
-0.204919 13.823686 -0.129261
1.097073 12.664048 0.945716
0.560003 13.936401 0.280078
1.127547 12.648830 0.860337
0.613029 13.880132 0.146752
1.153308 12.642225 0.776249
0.645421 13.883394 -0.003022
-0.177434 13.941756 1.410722
0.676904 13.878698 -0.169561
0.955804 13.982146 0.778172
0.941348 13.994146 1.602937
0.990901 13.974410 0.654420
0.972668 13.993444 1.486053
1.025280 13.958364 0.531105
1.003509 13.986498 1.364209
0.745819 13.864883 2.167840
1.056981 13.954556 0.405761
0.792468 13.932863 0.279243
0.780777 13.959040 1.137389
0.753004 14.011909 1.984073
1.760230 13.989290 0.584210
1.766787 13.994465 1.379767
0.857408 13.920406 -0.000558
0.841984 13.966517 0.901461
1.133210 14.000715 1.697388
1.174491 13.984031 0.770251
1.155862 14.013788 1.588527
0.805539 12.529972 2.115337
1.207716 13.978111 0.648659
1.188983 14.003752 1.470533
1.391609 13.317701 1.938211
1.236752 13.975575 0.528113
1.902210 14.025105 1.709361
1.267958 13.970079 0.404049
0.946225 14.017412 2.079741
1.931071 13.998848 0.698776
1.944498 14.009460 1.487461
2.043829 13.533770 2.037957
1.961942 14.001019 0.583214
1.969038 14.002413 1.375518
1.072518 13.934898 0.002578
1.065113 13.963367 0.890005
1.343155 14.021852 1.685780
1.098019 13.942466 -0.161626
0.379727 13.951509 1.226428
0.981740 12.634296 1.492122
1.418105 13.986037 0.644434
1.401278 14.010322 1.457229
0.577225 13.703446 0.068517
0.456527 13.950495 0.978633
2.130083 13.597550 1.551882
0.621712 13.660798 -0.086485
2.106401 14.007027 0.809064
1.164350 14.027639 2.056374
2.132550 14.002216 0.697448
1.199012 14.014930 1.929663
1.247108 13.976827 0.997099
0.703948 13.466269 2.066670
1.278289 13.971258 0.882166
1.554392 14.021197 1.670304
0.869282 13.363083 1.064733
1.623089 14.002861 0.642130
1.653994 13.981535 0.522400
2.311578 13.550798 1.533198
1.682694 13.980688 0.401092
1.380938 14.022936 2.031449
1.424397 13.994761 1.105887
1.459659 13.956859 0.150788
1.440058 14.029490 1.798081
0.903824 13.700588 1.238978
0.861370 13.957575 0.342627
1.784311 14.037336 1.554904
1.827992 14.005527 0.639441
1.813032 14.036949 1.443927
0.984838 13.778484 0.071946
0.910823 13.973866 0.953859
2.510292 14.052908 1.712030
0.971259 13.886323 -0.092775
1.598801 14.014500 1.212964
1.588927 14.036066 2.018987
2.550111 14.035192 1.490930
1.660355 13.987328 0.150959
2.573643 14.028564 1.379767
1.690290 13.997244 0.873122
1.964757 14.033329 1.654827
1.080480 13.964057 0.341108
1.058706 13.986230 1.178518
1.002611 14.011057 2.012072
1.113935 13.958732 0.210372
1.095762 13.980173 1.061442
1.045493 14.000708 1.885351
1.151096 13.924555 0.068353
1.128568 13.982275 0.944080
2.713441 14.043585 1.713365
2.687320 13.151615 2.042117
2.085349 14.009784 0.400469
1.803357 14.026676 1.208434
1.794920 14.046101 2.009640
1.833943 14.022184 1.097002
1.823485 14.053139 1.895840
2.769621 14.028810 0.585870
2.778005 14.039267 1.387203
1.343607 13.322902 1.899689
1.894814 13.992842 0.868298
2.188384 13.551357 1.485873
1.293643 13.970591 0.339874
1.270868 14.002555 1.169108
1.328382 13.955772 0.210790
1.305384 14.002007 1.054641
1.356836 13.946962 0.069660
1.340855 13.990779 0.936257
2.790293 13.116697 1.390399
2.286732 14.005524 0.400002
2.006684 14.036512 1.205716
2.943643 14.032007 0.704969
2.821832 13.112803 1.221552
2.976363 14.038555 0.588857
2.842092 13.121306 1.138642
2.998290 14.027425 0.466482
1.444193 14.010592 1.274281
1.501971 13.977879 0.338924
2.388757 13.552012 1.390391
1.534106 13.969160 0.211014
1.515692 14.005493 1.046328
1.551043 13.988407 0.928434
2.183548 13.441230 0.694996
2.175741 13.452896 1.391592
1.333177 13.886456 0.211042
2.199792 13.447756 1.294267
1.351267 13.901368 0.927130
2.011086 13.439672 1.087040
2.005912 13.455237 1.786878
2.996210 13.938429 1.411634
1.365807 13.929994 2.186424
2.085961 13.430391 0.794132
1.401520 13.943026 2.072729
2.379522 13.662704 0.724207
2.396677 13.954579 1.553703
2.424946 13.959366 1.446144
2.447925 13.821473 0.515870
2.450185 13.955083 1.331858
2.167536 13.780294 2.036359
2.187413 13.471240 1.095194
2.201138 13.915796 1.983158
3.188650 13.956991 1.544111
3.200707 13.938717 0.598483
3.211790 13.950169 1.429691
2.440235 13.032290 2.086173
2.259842 13.427333 0.794735
2.572953 13.948786 1.666434
2.462776 13.046156 1.997889
1.686565 13.920888 1.146008
1.640921 13.935913 1.942341
2.636631 13.944769 0.644434
2.625844 13.946859 1.449469
2.664155 13.950447 0.526480
2.652660 13.952921 1.337924
3.359946 13.950569 0.843022
3.385569 13.940739 0.725320
3.374844 13.860092 1.532550
3.420934 13.945615 0.604458
1.767254 13.938076 2.169557
1.850549 13.922405 1.254244
1.810620 13.819128 2.000638
2.628685 13.018573 1.271509
1.916942 13.919800 1.033481
1.893176 13.463534 1.642548
1.947892 13.920250 0.921263
2.612677 13.963581 1.218399
2.638659 13.923534 0.277863
2.640721 13.947409 1.105080
2.484209 13.001982 2.175383
3.658674 13.953554 1.470056
3.678232 13.958462 0.482489
2.046080 13.444412 1.135932
2.005833 13.469330 1.845240
3.017463 13.973329 1.590929
2.105312 13.445112 0.942042
2.069756 13.454485 1.638263
2.132501 13.437973 0.841728
2.608624 13.000964 1.707656
2.853157 12.964268 0.367472
2.640087 13.023413 1.003695
3.856113 13.969170 0.746998
2.658149 13.020200 1.538496
3.886792 13.955969 0.619394
2.160793 13.766173 2.086910
2.703204 12.992229 0.738056
3.201212 13.954319 1.711575
3.240732 13.965971 0.781638
3.226948 13.953751 1.601736
3.272101 13.962412 0.659413
3.300027 13.960314 0.536819
3.535426 12.878665 1.454458
3.613387 12.908946 2.163673
2.816629 12.975996 0.269732
3.053943 13.964815 1.937016
4.141465 13.971431 0.629684
3.595163 12.879854 1.192815
2.369435 13.961080 2.183051
2.450453 13.943361 1.263786
2.486022 13.940702 1.152852
3.241006 13.244184 0.592584
3.268204 13.251959 0.490296
3.722099 12.875086 1.483819
4.331358 13.982765 0.900531
3.750204 12.895323 1.404396
3.818686 12.902564 2.109815
4.365341 13.982027 0.773542
3.767046 12.886132 1.310574
2.826026 12.404387 0.181441
3.303740 13.951705 1.018972
3.028284 13.074081 1.502225
2.859882 12.448596 0.084108
3.333346 13.949745 0.903873
2.479087 13.034719 1.669016
2.698210 13.913240 0.339019
2.643799 13.420567 0.214337
3.420604 13.246067 1.313113
3.753522 13.962547 0.547429
3.933035 12.896168 1.527859
4.602181 13.985486 0.919700
3.462775 13.978064 2.109338
3.240288 13.232578 0.273071
3.971810 12.893419 1.344102
4.683364 13.988528 0.653251
3.993157 12.887733 1.249113
3.401843 12.911141 2.166955
4.245512 13.256250 0.462588
3.422280 12.926328 1.407200
3.551367 13.864918 -0.172205
3.937371 13.990250 0.814810
3.970924 13.986123 0.685530
3.466434 12.920683 1.232186
2.619542 12.416316 0.130251
2.742449 12.977080 0.778491
3.677535 13.233945 0.388484
3.691694 13.960557 1.282720
3.388260 13.129169 0.272672
3.730816 13.971481 1.169698
4.262609 12.904396 2.126352
4.220335 12.902460 1.287353
4.431538 13.173827 0.464535
3.072546 13.955845 1.293364
3.613922 12.916718 2.116972
4.193816 13.998083 0.829663
3.621729 12.906507 1.339956
2.912042 13.054547 0.216431
3.141866 13.942698 1.065976
3.100298 13.949556 1.879638
4.255342 13.976692 0.562937
3.676664 12.912481 1.161002
5.220817 14.013083 0.971184
3.266801 12.453422 0.266610
3.979084 13.982642 1.192315
4.810523 13.368174 0.617071
4.509627 12.970772 1.350025
3.917870 13.713181 -0.003918
3.191932 13.628477 1.223712
2.962923 13.001811 1.699455
4.038624 13.897211 -0.193363
4.464117 14.003955 0.846496
2.990315 12.989710 1.605814
4.501791 13.999361 0.710495
3.042989 13.060957 1.546854
2.913866 12.471105 0.124861
3.311931 13.686417 0.916700
4.868952 13.190583 1.806784
4.163561 13.919994 1.319863
3.443642 12.481621 0.267553
4.931657 13.197368 1.590357
4.927024 13.164478 0.610100
4.964331 13.195776 1.477492
4.395411 12.516428 0.435333
4.300110 13.909018 -0.205832
4.750781 14.009836 0.865805
4.035245 12.918875 1.408403
4.053141 12.926241 2.129876
4.787192 13.999874 0.725090
3.551763 13.965288 1.936769
4.336194 13.264291 0.524032
4.098877 12.926954 1.220650
3.331158 13.114441 -0.041192
5.124797 13.148773 0.870955
3.630159 12.505550 0.268570
4.503896 13.984528 1.243202
3.545062 12.327456 0.176633
4.547690 13.991451 1.117049
4.540555 13.919059 -0.030796
4.585143 13.988871 0.988892
