# .PCD v0.7 - Point Cloud Data file format
VERSION 0.7
FIELDS x y z
SIZE 4 4 4
TYPE F F F
COUNT 1 1 1
WIDTH 1664
HEIGHT 1
VIEWPOINT 0 0 0 1 0 0 0
POINTS 1664
DATA ascii
-5.197613 5.523197 0.134505
-6.441063 5.902067 0.211100
-5.913050 5.757736 0.201159
-5.461902 5.810733 0.136448
-5.617678 6.098691 0.135747
-4.382232 6.232080 0.103212
-6.797925 6.268685 0.244893
-5.360561 6.368596 0.138583
-4.861681 6.292952 0.137193
-4.449736 6.265974 0.106928
-7.125672 -2.016745 0.305813
-5.867373 -2.127402 0.395975
-5.457237 -2.152159 0.398084
-7.339884 0.904815 0.433934
-9.983901 1.620463 0.422159
-10.342360 1.995104 0.324239
-9.958449 1.855141 0.378712
-7.339191 1.956111 0.418504
-7.324080 2.065429 0.415854
-8.890150 2.732989 0.406485
-8.368177 2.722672 0.390957
-7.864110 2.626591 0.453788
-7.282915 2.583425 0.437347
-9.826261 2.981567 0.431339
-8.911309 2.756994 0.273048
-8.059597 2.868863 0.372672
-7.604805 2.785659 0.355208
-7.086715 2.862588 0.325911
-8.005296 3.006683 0.269867
-9.802788 3.329917 0.356345
-7.766186 3.646066 0.499008
-7.294547 3.646351 0.424343
-6.970632 3.679773 0.291935
-12.359529 4.037265 0.374851
-9.725692 4.388387 0.438022
-9.711849 4.632854 0.383946
-7.275237 4.923827 0.314405
-6.866484 4.961845 0.407596
-6.021537 4.984976 0.287717
-5.626945 4.943431 0.305073
-5.185731 4.892967 0.336568
-6.863657 5.046669 0.425358
-6.376656 5.143551 0.268774
-5.882122 5.038954 0.293774
-5.308215 5.128686 0.320372
-6.504139 5.331875 0.274495
-6.081748 5.443838 0.312440
-5.614071 5.383603 0.313490
-5.181214 5.470273 0.302047
-6.413023 5.616331 0.296851
-5.844345 5.592524 0.312547
-5.253049 5.553963 0.341687
-6.435944 5.881398 0.290194
-5.601478 5.935338 0.338710
-6.819171 6.236777 0.322316
-5.631901 6.039893 0.306900
-4.480316 6.218341 0.276225
-6.730304 6.283512 0.274949
-5.582639 6.399350 0.394715
-5.081512 6.304555 0.377318
-4.707464 6.273828 0.281450
-7.583957 0.743240 0.740124
-7.569350 0.816440 0.703754
-7.701762 1.146894 0.699930
-7.652072 1.591710 0.646540
-7.355001 1.941509 0.641326
-7.307909 2.382447 0.647204
-9.089722 2.721759 0.626962
-8.658239 2.694095 0.628191
-8.112860 2.634504 0.628413
-7.670220 2.609370 0.595577
-7.225358 2.622091 0.612491
-12.045362 2.968615 0.592105
-10.721505 2.818637 0.725769
-8.033281 2.815882 0.601811
-12.474103 3.015930 0.647355
-12.424579 3.668288 0.590449
-7.346985 3.623842 0.574577
-12.351795 4.032925 0.633891
-9.734831 4.379578 0.632695
-9.723399 4.631837 0.625308
-9.709357 4.863557 0.626538
-6.633706 4.874588 0.573215
-6.868324 5.119389 0.582062
-6.600613 5.337637 0.690503
-6.577190 5.626461 0.670426
-6.001076 5.964971 0.704808
-5.662439 5.918171 0.531321
-6.049135 6.070678 0.647169
-4.804399 6.218580 0.711745
-4.337203 6.140215 0.701438
-6.647284 6.400121 0.746655
-5.597451 6.388488 0.616888
-5.067020 6.310190 0.551118
-7.876127 -1.834370 0.924507
-7.700031 -1.581063 0.797528
-7.378800 0.415187 0.892900
-7.367376 0.639919 0.907893
-7.366927 0.837970 0.877283
-7.680278 1.385982 0.870690
-7.424909 1.866368 0.847895
-7.324166 2.390926 0.904197
-9.381138 2.717963 0.913628
-8.838511 2.663542 0.901651
-8.358026 2.637680 0.887436
-7.842978 2.583135 0.900892
-7.280957 2.561910 0.898083
-12.441891 2.981834 0.850695
-11.969450 2.889301 0.767127
-10.840773 2.828817 0.859503
-9.748650 2.752307 0.916894
-12.420092 3.899059 0.846037
-9.704941 4.235796 0.907570
-9.736135 4.576989 0.866670
-9.678589 5.118476 0.904825
-6.854506 5.180699 0.918097
-6.834420 5.430118 0.858321
-7.035671 5.642670 0.899683
-7.018886 5.882083 0.909698
-6.043251 5.972803 0.771504
-7.004540 6.109947 0.940641
-6.729364 6.003139 0.750385
-6.094244 6.123374 0.925824
-5.054749 6.245904 0.937275
-4.619583 6.185400 0.851322
-6.956669 6.358115 0.835269
-6.118399 6.425613 0.905508
-5.401844 6.328967 0.972123
-4.855929 6.277726 0.934724
-7.850598 -1.914481 1.127600
-7.873396 -1.710743 1.207624
-7.402112 0.238164 1.110408
-7.720673 0.689425 1.136231
-7.728702 0.835395 1.174453
-7.725596 1.129069 1.184501
-7.654340 1.594255 1.145758
-7.356938 2.141531 1.080846
-11.396103 2.749442 1.133393
-9.828458 2.734293 1.156823
-9.345522 2.692524 1.173562
-8.874932 2.654193 1.122694
-8.369847 2.603182 1.132992
-7.869561 2.576493 1.141675
-7.292099 2.547017 1.067760
-12.350994 2.939220 1.135781
-11.979707 2.836235 1.186415
-11.306481 2.778578 1.113744
-10.810045 2.832683 1.154149
-10.019176 2.828858 1.110156
-12.515625 3.118179 1.089810
-12.436633 3.902037 1.144634
-9.755866 4.239361 1.169322
-9.764652 4.346060 1.118608
-9.756773 4.918797 1.099246
-9.760756 5.091448 1.233588
-7.082069 5.154925 1.133634
-6.938382 5.308623 1.037161
-7.028007 5.884569 1.147662
-6.371763 6.244597 1.029995
-5.100736 6.240350 1.137886
-4.314297 6.198980 1.169709
-6.937919 6.367654 1.127070
-6.365592 6.439448 1.156204
-5.560442 6.347035 1.175070
-5.138783 6.265971 1.103701
-4.457579 6.256889 1.181274
-7.872653 -1.925462 1.413257
-7.868481 -1.614537 1.390403
-7.832610 -1.147437 1.410720
-7.738423 -0.644165 1.328472
-7.621041 -0.497864 1.262811
-7.671145 -0.090615 1.352656
-7.658053 0.215110 1.396148
-7.750448 0.634700 1.377697
-7.442538 0.610489 1.294785
-7.376288 0.787616 1.269193
-7.705106 1.378158 1.381516
-7.423934 1.863108 1.343865
-11.806630 2.745277 1.348412
-11.396537 2.736455 1.385226
-9.873717 2.725968 1.386557
-9.359616 2.680540 1.386365
-8.849409 2.635236 1.354618
-8.354498 2.585489 1.389602
-7.883052 2.554304 1.354864
-12.510910 2.987868 1.277273
-12.084197 2.880994 1.426580
-10.641327 2.769307 1.344706
-12.506822 3.138358 1.280541
-12.478636 3.625335 1.446586
-12.443871 4.027030 1.375561
-9.724496 4.176404 1.436857
-9.740210 4.631449 1.394606
-9.727846 5.117226 1.434579
-9.708797 5.333047 1.444530
-7.048193 5.883255 1.374683
-5.229718 6.226835 1.341875
-4.377554 6.185500 1.325340
-7.008852 6.329195 1.378598
-6.617852 6.390658 1.334047
-6.048189 6.370786 1.437983
-5.638999 6.334930 1.368189
-5.185608 6.257462 1.279823
-5.376847 -2.255506 1.642778
-4.031313 -2.312613 1.727139
-3.645787 -2.356203 1.733648
-7.636750 -2.018633 1.539901
-5.123478 -2.235440 1.680692
-7.851751 -1.919933 1.544085
-7.856927 -1.299599 1.615501
-7.835315 -0.905820 1.656061
-7.805748 -0.349692 1.634609
-7.785576 0.117921 1.660241
-7.727354 0.610876 1.567713
-7.696167 1.215823 1.553195
-7.669291 1.567306 1.616778
-7.351132 2.094067 1.536884
-10.282394 2.745958 1.695534
-9.844443 2.704736 1.643080
-9.382733 2.667301 1.619571
-8.855551 2.620702 1.645525
-8.452283 2.579152 1.543845
-11.869535 2.842827 1.597379
-11.340746 2.829826 1.682270
-10.863299 2.791587 1.650378
-10.394549 2.759238 1.606691
-12.456889 3.131909 1.505325
-12.482383 3.306556 1.500548
-12.389566 3.560292 1.546806
-12.270032 3.997424 1.563018
-12.308666 4.026175 1.566294
-9.772478 4.206085 1.680988
-9.791248 4.358895 1.633208
-9.758106 4.874881 1.653368
-9.711673 5.384519 1.641790
-7.065837 5.842084 1.563674
-6.902363 6.390316 1.570374
-6.340439 6.410322 1.533476
-5.871430 6.330730 1.615168
-5.350439 -2.270421 1.921308
-4.892021 -2.287923 1.824031
-4.345068 -2.325087 1.960743
-3.857229 -2.356646 1.891061
-3.424248 -2.378612 1.884002
-5.381819 -2.232996 1.858962
-4.972710 -2.242892 1.832161
-7.831172 -0.799312 1.813908
-7.815407 -0.367310 1.843452
-7.774131 0.126629 1.886952
-7.677035 1.555597 1.771183
-10.377289 2.734872 1.886052
-9.908535 2.702647 1.800953
-9.360896 2.655578 1.872602
-8.903131 2.622486 1.802668
-11.861374 2.840741 1.901035
-11.355924 2.818907 1.902162
-10.850561 2.779731 1.893015
-12.118810 3.133917 1.887221
-12.080942 3.633562 1.832429
-11.331580 3.649754 1.897877
-11.434829 3.761448 1.904688
-9.787219 4.199920 1.942493
-9.777935 4.625414 1.888931
-9.740566 5.153575 1.844562
-9.625681 5.530650 1.874615
-6.754659 6.324327 1.976812
-6.081960 6.327137 1.813461
-6.028398 -2.271637 2.242285
-5.657974 -2.272484 2.191691
-5.123497 -2.265201 2.147393
-4.614686 -2.320674 2.130066
-4.105526 -2.350307 2.164623
-3.576925 -2.367446 2.112611
-6.427542 -2.201977 2.219527
-5.374494 -2.234869 2.131742
-7.817693 -0.457135 2.020760
-10.627029 2.742264 2.107494
-10.125970 2.696891 2.131998
-9.694842 2.676526 2.024953
-11.861198 2.826017 2.130693
-11.361524 2.802103 2.114596
-10.837451 2.758454 2.123814
-12.096178 3.300571 2.101781
-11.864142 3.744424 2.002312
-11.927979 3.777871 2.009974
-9.718077 4.153002 2.054704
-9.793066 4.629921 2.132035
-9.759858 5.051345 2.092502
-9.629185 5.513766 2.068515
-4.979148 6.176115 2.235985
-4.354270 6.126115 2.136548
-5.806162 6.269181 2.240458
-6.092667 -2.253798 2.384961
-5.598457 -2.265264 2.417729
-5.125821 -2.295680 2.413432
-4.593058 -2.331200 2.395259
-4.176990 -2.351473 2.365062
-2.931318 -2.425511 2.329819
-6.620001 -2.185606 2.444264
-5.578286 -2.232535 2.311925
-10.599920 2.722566 2.385692
-12.113976 2.900327 2.304568
-11.526834 2.910967 2.335379
-11.026754 2.887923 2.380557
-10.617059 2.897009 2.415980
-11.923188 3.128412 2.347557
-11.384221 3.132132 2.364664
-10.543995 3.129347 2.420738
-11.554497 3.374049 2.363532
-11.017337 3.381260 2.390207
-10.147488 3.383995 2.467999
-11.700619 3.681926 2.378013
-10.793381 3.628326 2.445365
-10.262700 3.659886 2.459258
-11.868376 3.873810 2.389460
-11.174484 3.836832 2.418369
-10.607581 3.886402 2.458476
-10.017369 3.952408 2.498008
-11.394276 4.008998 2.427568
-10.541019 4.027451 2.460912
-10.039733 4.039815 2.490727
-9.786206 4.376883 2.321968
-9.818860 4.885147 2.275980
-7.162084 5.093405 2.490143
-5.717163 6.241412 2.441157
-5.082827 6.184203 2.322846
-4.568237 6.134976 2.406257
-6.053371 6.264866 2.475656
-5.833486 -2.294124 2.565224
-5.369688 -2.278813 2.564419
-4.862479 -2.314666 2.587270
-4.382594 -2.318279 2.599877
-6.853296 -2.136621 2.533166
-6.319797 -2.163505 2.561043
-5.895132 -2.139108 2.580617
-5.373502 -2.199378 2.638270
-4.648923 -2.069754 2.647905
-6.912154 -1.871892 2.572347
-6.092721 -1.852344 2.597370
-5.558165 -1.866201 2.642766
-4.584720 -1.822278 2.676654
-6.911214 -1.585376 2.581554
-6.333933 -1.651563 2.611499
-5.874794 -1.618777 2.632992
-4.864459 -1.606983 2.678083
-6.832154 -1.346011 2.597837
-6.363451 -1.415597 2.642679
-5.869170 -1.362288 2.652181
-4.854903 -1.450328 2.684844
-6.624425 -1.146630 2.647679
-6.087878 -1.147129 2.650073
-5.637661 -1.119635 2.674117
-6.648526 -0.869911 2.662109
-6.054498 -0.867180 2.676050
-5.611955 -0.937302 2.703039
-6.688644 -0.600088 2.672502
-5.857780 -0.638502 2.707890
-6.817223 -0.340628 2.664474
-5.909578 -0.426055 2.711899
-6.632891 -0.077405 2.696088
-7.378849 2.681519 2.748685
-7.331369 3.141513 2.699548
-7.283401 3.637668 2.660266
-7.237435 4.148851 2.634584
-7.195827 4.635521 2.662868
-7.166759 5.123983 2.647993
-7.093644 6.163302 2.749026
-5.654554 6.228469 2.671142
-5.116126 6.170615 2.642823
-4.578177 6.124177 2.646020
-6.824209 6.312425 2.697885
-6.079285 6.256220 2.673684
-4.798164 6.286653 2.516100
-3.628326 -0.820231 2.784390
-3.683846 -0.613930 2.801261
-3.089822 -0.559896 2.797919
-3.936206 -0.337189 2.824142
-3.324885 -0.392380 2.826493
-2.882396 -0.474215 2.839069
-3.617806 -0.141303 2.829563
-3.191895 -0.079523 2.842197
-3.875387 0.026119 2.848672
-3.355217 0.135633 2.837738
-6.076302 0.471939 2.775790
-5.285213 0.383864 2.812419
-4.908068 0.463594 2.821145
-3.369619 0.373513 2.856456
-6.257425 0.591857 2.758906
-5.887279 0.650783 2.791800
-5.080552 0.639320 2.831669
-4.267211 0.690233 2.856268
-3.879213 0.743000 2.863796
-3.377298 0.612662 2.864886
-6.117925 0.883700 2.788934
-5.116314 0.897883 2.833633
-4.276733 0.897679 2.860958
-3.854421 0.860767 2.880757
-3.360066 0.875470 2.869616
-6.079125 1.127163 2.804400
-5.676279 1.180557 2.830732
-5.120095 1.125589 2.847457
-4.274908 1.159179 2.875887
-3.909969 1.148086 2.901948
-6.687770 1.413006 2.806333
-6.091308 1.384091 2.821224
-5.652659 1.385940 2.835353
-5.115877 1.386357 2.855512
-4.648530 1.399607 2.897774
-4.106870 1.367274 2.896785
-7.024575 1.655023 2.803774
-6.628281 1.647830 2.815209
-6.099948 1.630508 2.830937
-5.638877 1.637358 2.844498
-5.110494 1.626325 2.860939
-4.642833 1.633640 2.900282
-4.110467 1.630707 2.901229
-3.610628 1.625963 2.937808
-6.862707 1.878044 2.816745
-6.350983 1.905412 2.831102
-5.865058 1.879030 2.847195
-5.357650 1.886802 2.871279
-4.845456 1.882575 2.885285
-4.368302 1.881332 2.907494
-3.888041 1.895512 2.930811
-3.437588 1.881234 2.948835
-6.617136 2.128867 2.832907
-6.119220 2.119613 2.852221
-5.620816 2.134449 2.870128
-5.123768 2.130370 2.885227
-4.596618 2.122093 2.906416
-4.110802 2.141002 2.922209
-3.601296 2.141438 2.949787
-7.032499 2.411471 2.838440
-6.607929 2.380132 2.845793
-6.108673 2.382654 2.861990
-5.604270 2.389997 2.884279
-5.117772 2.382915 2.897595
-4.606166 2.375110 2.916965
-4.127153 2.376437 2.935228
-3.632520 2.375612 2.949503
-7.128445 2.646575 2.844674
-6.609536 2.637994 2.858013
-6.122025 2.631926 2.875008
-5.619569 2.631386 2.896708
-5.117107 2.635457 2.910338
-4.617790 2.629534 2.929379
-4.106559 2.625938 2.946594
-3.651027 2.617267 2.961798
-7.091598 2.891048 2.863611
-6.618371 2.872745 2.866750
-6.103125 2.874970 2.886772
-5.606091 2.882585 2.909019
-5.110103 2.878811 2.925479
-4.613061 2.879802 2.942704
-4.114625 2.877355 2.960019
-3.676831 2.875614 2.971923
-7.101221 3.117718 2.876049
-6.597179 3.129912 2.877820
-6.114108 3.127365 2.902787
-5.618672 3.128316 2.923946
-5.102810 3.127763 2.938477
-4.615280 3.128575 2.954859
-4.117282 3.131034 2.970018
-3.708160 3.103737 2.985311
-7.092407 3.382434 2.885746
-6.593623 3.378164 2.888824
-6.127998 3.376274 2.915675
-5.618840 3.369520 2.932998
-5.113205 3.380396 2.950122
-4.612240 3.377295 2.966548
-4.113633 3.377694 2.982255
-3.732404 3.288224 2.996648
-7.090991 3.631546 2.892149
-6.598326 3.633236 2.903324
-6.100253 3.636300 2.931100
-5.614374 3.634647 2.949080
-5.117730 3.620230 2.959881
-4.614892 3.633309 2.973811
-4.117185 3.622809 2.993768
-7.254912 3.892656 2.875184
-6.843756 3.873811 2.910927
-6.374689 3.859659 2.920699
-5.889826 3.882958 2.943630
-5.353247 3.880438 2.968611
-4.844861 3.880709 2.985260
-4.392114 3.868486 2.994944
-6.863627 4.133391 2.918011
-6.353878 4.129074 2.936787
-5.875147 4.120454 2.953259
-5.349990 4.128330 2.978972
-4.835797 4.141160 2.995960
-7.150877 4.386195 2.888116
-6.614677 4.370950 2.941209
-6.100212 4.378286 2.970964
-5.601029 4.360376 2.989156
-5.125772 4.321670 2.989853
-7.147835 4.616459 2.888177
-6.612532 4.632533 2.952233
-6.110982 4.630884 2.988671
-5.625109 4.646710 2.998718
-6.861197 4.876895 2.963592
-6.363072 4.877113 2.979002
-5.857124 4.873938 2.998506
-6.847284 5.128049 2.976081
-6.359839 5.125547 2.994645
-6.845578 5.389733 2.988626
-7.079993 5.887669 2.978767
-6.282809 6.247146 2.991446
-5.898709 6.223350 2.887229
-5.352382 6.180515 2.881023
-4.871007 6.142081 2.879849
-4.360014 6.098111 2.880949
-6.899837 6.307933 2.859528
-6.205654 6.258909 2.786706
-4.118666 3.877955 3.002833
-4.520647 4.078592 3.017262
-4.137808 4.181633 3.017144
-5.573290 4.458814 3.032604
-5.139225 4.443872 3.028369
-4.629293 4.343866 3.021584
-4.161713 4.321442 3.024710
-6.128063 4.549972 3.017956
-5.369819 4.598801 3.013278
-4.866382 4.631621 3.020109
-4.367517 4.625842 3.022489
-5.636970 4.913333 3.011565
-5.116803 4.861509 3.018114
-4.610795 4.877483 3.036917
-4.150382 4.853965 3.044645
-5.864811 5.125020 3.015262
-5.410861 5.076531 3.020388
-4.862991 5.123209 3.042550
-4.363969 5.124705 3.047026
-6.585968 5.413558 3.011953
-6.118915 5.367327 3.015450
-5.609700 5.379042 3.033338
-5.110934 5.377708 3.051675
-4.614233 5.379071 3.065650
-4.195737 5.362066 3.074713
-6.626879 5.616062 3.013144
-6.115588 5.626821 3.035863
-5.604452 5.624634 3.049470
-5.112867 5.624824 3.068011
-4.614468 5.630513 3.078079
-4.203821 5.631407 3.089272
-6.863577 5.838955 3.013974
-6.344886 5.866230 3.035595
-5.866280 5.879433 3.060613
-5.363098 5.877894 3.077882
-4.870198 5.871463 3.092194
-4.374333 5.881266 3.096576
-7.027080 6.132598 3.020222
-6.606010 6.124619 3.042389
-6.105208 6.137776 3.060430
-5.608823 6.106228 3.071206
-5.109675 6.091781 3.081660
-4.601920 6.074108 3.086009
-7.003780 6.281232 3.019597
-6.632419 6.331346 3.025269
-3.514235 -8.517035 -1.554883
-3.159202 -9.019074 -1.456442
-4.155532 -8.103907 -1.467281
-3.215223 -8.731680 -1.159778
-4.319402 -8.075956 -1.147448
-3.891348 -7.980825 -1.152666
-3.575743 -8.356393 -0.945048
-4.201643 -8.013116 -0.894462
-4.054389 -7.881474 -0.929645
-3.174874 -5.108231 -0.828642
-3.088582 -4.167465 -0.817957
-5.891194 -2.017575 -0.814590
-7.255734 -1.826508 -0.798601
-6.875027 -1.900780 -0.818092
-6.366948 -1.962489 -0.781278
-5.670153 -1.774305 -0.823452
-6.915421 -1.565017 -0.856825
-6.422924 -1.628860 -0.834788
-5.137667 -1.682502 -0.790608
-7.421044 -1.303339 -0.821785
-6.953362 -1.451240 -0.859647
-6.136189 -1.331705 -0.804617
-5.213858 -1.334246 -0.776890
-7.393103 -1.086487 -0.831804
-6.999609 -1.198807 -0.818654
-6.303385 -1.201798 -0.796364
-5.362247 -1.215011 -0.771721
-7.099206 -0.771708 -0.790123
-6.313295 -0.783955 -0.763708
-6.670975 -0.552525 -0.754870
-7.097775 -0.346939 -0.757619
-6.367388 -0.384792 -0.750440
-12.279963 3.352389 -0.836214
-9.844437 3.345297 -0.872476
-12.227942 3.670307 -0.819526
-12.276987 4.115601 -0.827353
-3.246831 -8.788513 -0.728848
-4.359871 -8.058075 -0.667127
-3.930164 -8.006257 -0.672307
-4.077620 -7.897465 -0.653189
-3.101650 -4.180152 -0.643384
-3.053326 -3.369940 -0.665327
-2.997198 -2.766738 -0.591827
-3.035556 -2.309605 -0.639847
-6.104000 -2.024738 -0.648996
-5.627806 -2.060346 -0.648706
-5.137406 -2.097754 -0.664850
-4.682196 -2.002216 -0.722626
-3.829242 -2.233905 -0.640236
-3.140463 -2.109422 -0.724810
-2.599572 -2.094871 -0.596266
-2.021968 -2.187983 -0.600177
-7.138075 -1.937292 -0.657973
-6.587800 -1.975536 -0.662011
-4.792203 -1.934302 -0.687902
-3.534281 -1.891368 -0.725015
-3.182322 -1.968113 -0.721155
-1.834339 -1.833729 -0.653609
-4.684967 -1.643601 -0.731371
-4.045295 -1.709301 -0.688460
-2.648618 -1.654076 -0.627831
-2.004850 -1.687093 -0.649120
-1.736251 -1.514417 -0.630302
-7.173445 -1.260981 -0.738917
-4.352509 -1.408062 -0.711728
-3.883627 -1.347342 -0.681872
-3.361659 -1.259419 -0.664895
-2.862817 -1.294306 -0.629216
-2.288959 -1.333575 -0.562226
-7.620873 -1.131130 -0.573949
-5.068599 -1.110871 -0.736287
-4.558811 -1.186435 -0.592507
-4.149956 -1.120277 -0.678583
-3.365865 -1.213289 -0.664762
-2.469763 -1.113928 -0.603103
-7.629686 -0.835274 -0.649898
-5.836469 -0.769017 -0.733553
-5.352762 -0.844148 -0.727897
-4.816887 -0.845031 -0.701340
-4.339143 -0.765426 -0.675021
-3.898088 -0.778072 -0.650364
-3.375846 -0.901888 -0.650143
-2.887019 -0.972031 -0.619393
-2.374143 -0.879826 -0.624432
-7.716007 -0.636568 -0.638224
-5.612706 -0.620158 -0.726223
-5.126387 -0.608224 -0.695463
-4.601530 -0.599417 -0.685998
-4.181739 -0.580471 -0.655901
-3.624024 -0.598859 -0.645915
-3.170562 -0.603909 -0.610520
-2.549788 -0.725381 -0.588139
-1.946395 -0.633544 -0.581115
-7.345592 -0.324184 -0.725850
-6.587078 -0.338234 -0.740389
-5.874654 -0.417380 -0.713191
-5.354751 -0.383981 -0.706474
-4.847225 -0.385563 -0.681132
-4.374578 -0.355516 -0.657070
-3.835291 -0.350062 -0.640982
-3.402234 -0.312673 -0.613254
-2.835953 -0.343832 -0.588387
-7.617188 -0.175403 -0.675825
-7.146381 -0.075570 -0.738408
-6.608627 -0.091842 -0.723199
-6.178865 -0.073323 -0.712040
-5.605475 -0.130500 -0.697408
-5.113606 -0.097306 -0.672334
-4.610802 -0.113121 -0.664316
-4.122630 -0.129092 -0.633293
-3.637662 -0.065941 -0.620822
-3.074384 -0.042601 -0.578331
-2.707507 -0.079115 -0.564661
-2.210387 -0.171202 -0.550543
-7.172278 0.130518 -0.734890
-6.608562 0.175803 -0.709457
-6.110239 0.142566 -0.705627
-5.589001 0.127916 -0.681425
-5.131799 0.150462 -0.663453
-4.596712 0.155587 -0.645096
-4.160055 0.130289 -0.619877
-3.656787 0.162399 -0.604018
-3.167335 0.199845 -0.569656
-2.613955 0.175452 -0.541966
-7.255861 0.397785 -0.684405
-6.885373 0.399988 -0.718556
-6.390618 0.396905 -0.692821
-5.856717 0.404773 -0.673906
-5.359540 0.393986 -0.660308
-4.887189 0.401085 -0.641268
-4.364934 0.427572 -0.616425
-3.870750 0.354864 -0.608019
-3.372308 0.401194 -0.569787
-2.911321 0.360064 -0.556823
-7.280951 0.666437 -0.702109
-6.866704 0.638924 -0.704297
-6.342916 0.664355 -0.678770
-5.878461 0.666602 -0.664356
-5.374466 0.650935 -0.648714
-4.869882 0.644697 -0.629224
-4.397404 0.625097 -0.608224
-3.870364 0.646241 -0.590217
-3.396564 0.638707 -0.559064
-2.909585 0.593145 -0.534591
-7.277405 0.893312 -0.694102
-6.844965 0.887569 -0.692072
-6.382086 0.917953 -0.670912
-5.876306 0.909894 -0.651972
-5.370998 0.916499 -0.633450
-4.879940 0.906658 -0.616732
-4.371702 0.871790 -0.593277
-3.872825 0.897847 -0.575365
-3.348017 0.875216 -0.548591
-2.881884 0.874746 -0.523110
-7.598072 1.173748 -0.594248
-7.174234 1.157629 -0.617699
-6.620513 1.150348 -0.667558
-6.097177 1.166939 -0.647756
-5.625963 1.160095 -0.631847
-5.120415 1.147625 -0.614763
-4.621370 1.170824 -0.592747
-4.126061 1.171711 -0.570619
-3.623908 1.157724 -0.550863
-3.168987 1.203975 -0.520351
-7.593080 1.389164 -0.637542
-7.162722 1.361018 -0.636477
-6.596291 1.391162 -0.656379
-6.101002 1.415495 -0.635729
-5.623851 1.415545 -0.619300
-5.123131 1.399927 -0.600980
-4.628045 1.390090 -0.584051
-4.112054 1.414081 -0.559134
-3.595633 1.437927 -0.529732
-3.149581 1.368434 -0.505779
-7.358203 1.632966 -0.678189
-6.886863 1.669829 -0.650403
-6.361437 1.640661 -0.634402
-5.866098 1.637811 -0.617623
-5.377798 1.644854 -0.598437
-4.871687 1.651829 -0.578557
-4.377465 1.647287 -0.554399
-3.869952 1.648502 -0.533471
-3.369040 1.625257 -0.501547
-7.371233 1.871802 -0.617081
-6.872011 1.891887 -0.637279
-6.349444 1.906953 -0.622235
-5.869145 1.900886 -0.601924
-5.365963 1.896441 -0.583181
-4.878592 1.904791 -0.564735
-4.375155 1.894354 -0.541788
-3.888247 1.885038 -0.522582
-7.159983 2.178830 -0.622425
-6.621502 2.151229 -0.613086
-6.111187 2.145884 -0.598924
-5.618236 2.155206 -0.577520
-5.123026 2.152867 -0.558705
-4.621312 2.143261 -0.540010
-4.146059 2.108714 -0.520001
-7.269374 2.380322 -0.546257
-6.866560 2.401369 -0.611887
-6.369529 2.405079 -0.592490
-5.871436 2.400051 -0.574290
-5.371610 2.401020 -0.552740
-4.852827 2.420908 -0.527703
-4.403360 2.385603 -0.517381
-7.205679 2.558573 -0.551368
-6.598375 2.661815 -0.588380
-6.118976 2.649757 -0.571146
-5.621531 2.649666 -0.549325
-5.099092 2.679234 -0.526565
-4.668992 2.597153 -0.517043
-9.049695 2.995224 -0.578492
-8.340621 2.944910 -0.581385
-7.887233 2.940522 -0.573194
-7.335542 2.953683 -0.565569
-6.862854 2.882004 -0.575397
-6.377873 2.906058 -0.570113
-5.869328 2.904000 -0.548073
-5.371231 2.913699 -0.525082
-4.926624 2.847987 -0.515290
-10.439620 3.074159 -0.654224
-9.875346 3.036393 -0.633305
-7.863839 3.108942 -0.601081
-7.487833 3.101779 -0.592032
-6.892484 3.130759 -0.575951
-6.353189 3.132830 -0.550796
-5.847506 3.177400 -0.525483
-5.409448 3.138660 -0.511015
-12.392633 3.312935 -0.664746
-7.374797 3.282722 -0.572644
-6.879291 3.408000 -0.554319
-6.376193 3.430907 -0.522253
-5.916733 3.381925 -0.517462
-12.353221 3.627651 -0.744302
-10.889017 3.632852 -0.689344
-10.387078 3.677651 -0.675709
-9.798059 3.612941 -0.636036
-9.396804 3.706419 -0.646622
-8.636079 3.727344 -0.587482
-8.075324 3.714935 -0.541930
-7.609681 3.724651 -0.553680
-7.041875 3.642728 -0.538462
-6.623597 3.636267 -0.533358
-6.108733 3.598971 -0.512672
-10.866549 3.805982 -0.695078
-10.356280 3.860752 -0.672998
-9.856539 3.852171 -0.648374
-9.336336 3.892804 -0.622766
-8.845242 3.831653 -0.605309
-8.351868 3.897998 -0.585552
-7.871419 3.882077 -0.569133
-7.373481 3.919829 -0.546213
-6.858788 3.888989 -0.520085
-6.366674 3.900128 -0.501690
-10.394776 4.158363 -0.658451
-9.899523 4.160921 -0.633536
-9.324082 4.154963 -0.607371
-8.874703 4.128876 -0.591815
-8.329591 4.154514 -0.573554
-7.861622 4.143145 -0.557407
-7.370328 4.136294 -0.537038
-6.911477 4.087662 -0.517140
-9.646063 4.421342 -0.586256
-9.135995 4.436166 -0.602795
-8.607639 4.401939 -0.567166
-8.120265 4.406122 -0.549192
-7.581935 4.425124 -0.522740
-7.098135 4.402041 -0.500413
-9.349463 4.658991 -0.610153
-8.864870 4.652263 -0.572780
-8.354717 4.637194 -0.547840
-7.852458 4.658148 -0.522127
-7.363939 4.640064 -0.504829
-9.336596 4.853642 -0.595466
-8.876393 4.886944 -0.556935
-8.325189 4.931381 -0.521380
-7.864165 4.888740 -0.501744
-9.313206 5.132930 -0.569999
-8.882141 5.130222 -0.540881
-8.408960 5.096818 -0.517041
-9.413663 5.340917 -0.562668
-3.620791 -8.369359 -0.448447
-3.953783 -8.051003 -0.393894
-4.199759 -7.947152 -0.448012
-3.181021 -4.457677 -0.363106
-3.106452 -3.756245 -0.250468
-3.058280 -3.436726 -0.456642
-3.004961 -2.822182 -0.371870
-2.921233 -2.289925 -0.363566
-6.059217 -2.040854 -0.425475
-5.630001 -2.069356 -0.412895
-5.136612 -2.111559 -0.418648
-3.847507 -2.234545 -0.420273
-7.126148 -1.954626 -0.408259
-6.695191 -1.978458 -0.435614
-4.711425 -1.982898 -0.319135
-1.943130 -1.824395 -0.469623
-7.785553 -1.371986 -0.385253
-4.641551 -1.353425 -0.443203
-7.700280 -0.869099 -0.492431
-7.715077 -0.684119 -0.345115
-7.662153 0.644386 -0.326207
-7.424396 0.906339 -0.344119
-7.360642 1.209223 -0.430981
-7.639702 1.427274 -0.354113
-7.165524 1.315635 -0.438439
-3.198764 1.573121 -0.495984
-3.408558 1.877079 -0.491011
-3.629843 2.122088 -0.484565
-7.273801 2.366874 -0.395390
-3.693956 2.365788 -0.475331
-7.895334 2.692345 -0.315904
-7.468909 2.729800 -0.309196
-4.372338 2.650087 -0.497616
-3.900824 2.639405 -0.469932
-8.800284 2.897377 -0.376792
-8.401776 2.889896 -0.445834
-7.911128 2.949321 -0.390071
-7.335502 2.906700 -0.401201
-6.983600 2.952627 -0.444718
-4.372544 2.897070 -0.483348
-3.949195 2.859570 -0.458507
-10.578154 3.048425 -0.433333
-4.612838 3.137933 -0.477158
-4.158720 3.130009 -0.455121
-5.456886 3.342878 -0.496786
-4.352165 3.315878 -0.447905
-7.890559 3.739700 -0.352682
-7.375884 3.690964 -0.363956
-6.962288 3.672200 -0.365057
-5.622625 3.616044 -0.476994
-6.102929 3.905241 -0.484768
-5.695437 3.820082 -0.453343
-6.353711 4.135139 -0.490930
-5.921189 4.144401 -0.466419
-6.857526 4.391410 -0.495100
-6.358732 4.384717 -0.478625
-5.953836 4.335472 -0.459010
-7.087421 4.639586 -0.484305
-6.605902 4.642720 -0.470186
-6.145380 4.625006 -0.454314
-7.610882 4.899898 -0.496046
-7.102472 4.901968 -0.416925
-6.590807 4.922467 -0.393370
-6.112984 4.893513 -0.436153
-5.665031 4.980987 -0.406610
-8.122290 5.077263 -0.478885
-7.662270 5.048575 -0.475345
-6.529297 5.137815 -0.361215
-6.103846 5.140237 -0.420116
-5.607745 5.133122 -0.395120
-5.183968 5.218776 -0.362880
-6.506182 5.367607 -0.338312
-6.116279 5.381423 -0.404219
-5.639832 5.389045 -0.371033
-5.198247 5.365620 -0.362370
-6.464252 5.587543 -0.346346
-5.860237 5.610930 -0.353766
-5.377367 5.626163 -0.358186
-6.393659 5.881761 -0.348979
-5.939914 5.805046 -0.300560
-5.419559 5.879320 -0.345567
-6.369367 6.125600 -0.362808
-5.792605 6.160111 -0.331712
-5.459566 6.086164 -0.335673
-6.625825 6.411825 -0.326849
-5.582979 6.331825 -0.298103
-4.171857 -8.572298 -0.153594
-3.188200 -4.508393 -0.201484
-3.052535 -2.329030 -0.105814
-5.854769 -2.068927 -0.154770
-5.178725 -2.131444 -0.200537
-4.718080 -2.023816 -0.241995
-7.268188 -1.965079 -0.137669
-6.881402 -1.992592 -0.165286
-4.731689 -1.560966 -0.123478
-7.836737 -1.397846 -0.081961
-7.848089 -1.135620 -0.091076
-7.817863 -0.814560 -0.070593
-7.677051 -0.372807 -0.161307
-7.751948 0.224643 -0.094881
-7.728722 0.428782 -0.115899
-7.691165 0.896734 -0.131997
-7.647059 1.420458 -0.169546
-7.288649 2.154838 -0.157318
-7.904521 2.704337 -0.161390
-7.302570 2.634572 -0.151133
-10.060933 2.930258 -0.117583
-9.168880 2.827231 -0.141500
-8.380373 2.890996 -0.180238
-7.812816 2.847704 -0.165388
-7.307642 2.806745 -0.212750
-12.417716 3.152741 -0.153120
-12.437350 3.317594 -0.153164
-7.426178 3.434624 -0.081719
-7.425375 3.659019 -0.233681
-6.962906 3.640475 -0.162607
-7.569213 3.960099 -0.101017
-12.389399 4.142628 -0.170828
-7.476391 4.061744 -0.098359
-7.639338 4.401875 -0.080846
-9.684303 4.672196 -0.141127
-7.455229 4.660676 -0.086150
-7.586715 4.979142 -0.158631
-7.106054 4.949937 -0.220011
-6.580334 4.947583 -0.143827
-7.636992 5.046688 -0.158753
-6.537189 5.147019 -0.145064
-9.617487 5.369368 -0.118338
-6.507616 5.394247 -0.139460
-5.493661 5.425201 -0.013902
-6.483406 5.606833 -0.137075
-5.625998 5.607979 -0.132186
-6.438951 5.879177 -0.143139
-5.654825 5.930963 -0.214458
-5.767268 6.195739 -0.191114
-6.786781 6.457590 -0.214940
-6.401061 6.253717 -0.204954
-5.794824 6.373716 -0.173760
-2.022462 -11.192875 0.032522
-6.903994 -2.003349 0.079315
-5.864941 -2.105807 0.166738
-4.881595 -2.140765 0.074540
-7.131106 -1.995674 0.079932
-4.703274 -1.474974 0.051936
-7.781014 -0.175859 0.042291
-7.697200 0.167318 0.064473
-7.715878 0.438228 0.091944
-7.485218 0.588895 0.205845
-7.685109 1.153145 0.042433
-7.633015 1.608614 0.089603
-7.384782 1.927968 0.057483
-7.280951 2.402814 0.097060
-7.834312 2.673687 0.026219
-7.309126 2.610153 0.144017
-11.765256 2.830884 0.044953
-10.025513 2.935958 0.215878
-9.574988 2.854822 0.182602
-9.033590 2.783449 0.164148
-8.665887 2.782454 0.119486
-7.826053 2.875321 0.095568
-7.345015 2.834162 0.204746
-12.428694 3.190333 0.074474
-12.438002 3.312988 0.127364
-7.330339 3.494321 0.148576
-7.945527 3.689381 0.178173
-7.406456 3.628778 0.161250
-6.978518 3.649351 0.212608
-7.555360 3.945687 0.088881
-7.545180 4.054000 0.080938
-9.652855 4.341418 0.113708
-9.714840 4.642232 0.095383
-7.426954 4.680722 0.163184
-7.591258 4.994359 0.118543
-6.783178 4.895933 0.046618
-7.792242 5.019495 0.054872
-9.623425 5.365130 0.106436
-6.512074 5.403124 0.107510
-9.556547 5.704861 0.102435
-6.016279 5.561718 0.092779
-5.559447 5.587744 0.066568
-9.745280 5.912759 0.058230
-6.447326 5.874081 0.115282
-6.809803 6.445956 0.198432
-5.674311 -2.129966 0.282849
-4.782793 -1.810989 0.339856
-7.439475 -1.340974 0.400742
-7.393239 0.462243 0.354638
-7.690287 0.667135 0.375057
-7.683611 0.883022 0.408662
-7.700161 1.147018 0.365426
-9.974800 1.382156 0.463603
-9.969267 1.605913 0.462745
-10.464730 1.999036 0.378295
-7.357340 1.957913 0.386498
-7.289334 2.395840 0.357161
-8.871564 2.734438 0.308756
-7.836805 2.634169 0.442114
-7.307767 2.596129 0.381303
-9.575976 2.835447 0.321881
-8.052744 2.966161 0.259656
-7.281940 2.902375 0.279905
-12.441588 3.234398 0.379742
-12.430715 3.397224 0.398109
-12.438874 3.681533 0.423966
-7.353057 3.613856 0.287699
-6.983661 3.604503 0.314836
-12.376224 4.133047 0.417957
-9.675942 4.323451 0.372298
-9.666996 4.898933 0.404595
-7.402750 4.933256 0.285966
-6.834577 4.904961 0.412636
-5.853324 4.958129 0.314422
-7.786700 5.000591 0.335364
-6.566296 5.059356 0.307969
-6.092288 5.053754 0.306853
-9.594789 5.361391 0.326980
-6.508981 5.405773 0.272370
-6.231789 5.276679 0.302619
-6.442125 5.653160 0.292692
-6.473234 5.838513 0.282503
-6.669899 6.235059 0.339719
-6.649658 6.433688 0.277808
-6.799657 -2.058087 0.628191
-7.565813 -1.304797 0.583089
-7.590292 -1.221156 0.605830
-7.409532 0.134913 0.694475
-7.753615 0.630129 0.660851
-7.370318 0.640679 0.578810
-7.716982 0.889605 0.584570
-7.708099 1.146045 0.599868
-7.651179 1.585523 0.608130
-7.429313 1.871821 0.671252
-7.298964 2.400244 0.613612
-9.135516 2.729570 0.622413
-8.636209 2.690651 0.568238
-8.122557 2.658860 0.585734
-7.668543 2.615798 0.577822
-7.241727 2.611654 0.669063
-9.690749 2.789410 0.747421
-9.231866 2.804909 0.547312
-8.069556 2.831622 0.594708
-9.858455 3.095741 0.630425
-9.807473 3.388810 0.524896
-7.820427 3.657518 0.656721
-7.377656 3.599694 0.663400
-12.406383 4.124076 0.617048
-9.757218 4.393807 0.581265
-9.695618 4.892841 0.600784
-7.200413 4.941672 0.634104
-6.651883 4.916028 0.602638
-6.813107 5.069409 0.673697
-9.631306 5.395309 0.614291
-9.647095 5.622195 0.649272
-4.068172 -11.150950 0.767741
-6.623060 -2.066031 0.850646
-7.866014 -1.857999 0.927585
-7.758286 -1.627120 0.816396
-7.450869 -1.661721 0.866365
-7.430775 -1.386786 0.805470
-7.429277 -0.285397 0.859354
-7.399120 0.143411 0.837574
-7.756410 0.650840 0.876537
-7.362690 0.667814 0.835749
-7.734576 0.914035 0.844543
-7.716296 1.152206 0.852699
-7.650445 1.601626 0.842174
-7.356878 2.148011 0.917548
-9.599409 2.742040 0.870501
-9.129032 2.702360 0.824861
-8.609654 2.656512 0.839772
-8.129045 2.616351 0.837152
-7.642889 2.595871 0.821252
-12.287078 2.935185 0.968118
-10.322845 2.806151 0.844923
-9.873220 2.755199 0.908849
-12.469432 3.200801 0.768299
-12.474889 3.448421 0.842740
-12.449244 3.911663 0.833984
-9.680566 4.235750 0.812375
-9.757933 4.647108 0.898924
-9.702607 4.893538 0.850019
-9.677692 5.145216 0.837706
-6.809011 5.140951 0.880911
-9.673699 5.362203 0.841300
-9.622231 5.599024 0.892320
-5.929056 5.962655 0.850575
-5.849420 6.333300 0.944507
-7.824461 -2.001625 1.124656
-7.390231 -2.043818 1.141300
-6.857738 -2.044526 1.113127
-6.430461 -2.052949 1.055990
-7.640408 -1.885285 1.006005
-7.446368 -0.404959 1.099550
-7.430160 0.125534 1.156974
-7.764524 0.572072 1.132236
-7.380044 0.611897 1.166504
-7.740685 0.919354 1.075649
-7.725291 1.162140 1.072621
-7.649189 1.611103 1.083356
-7.308113 2.393224 1.026470
-9.888781 2.739243 1.128142
-9.342336 2.690925 1.150328
-8.874043 2.653788 1.061782
-8.357587 2.610029 1.106475
-7.895228 2.579839 1.164520
-12.511538 2.998215 1.091212
-12.182217 2.905115 1.013600
-10.511223 2.815949 1.010464
-10.050429 2.775062 1.155500
-12.519424 3.136680 1.077320
-12.487839 3.416996 1.093891
-12.464213 3.889946 1.115757
-9.685343 4.218637 1.083180
-9.731274 4.575330 1.156865
-9.709847 4.911467 1.101759
-7.028594 5.222106 1.158703
-7.033288 5.386281 1.193050
-9.604915 5.585783 1.070439
-6.987845 5.650204 1.123522
-6.986337 5.985454 1.078237
-6.889444 6.389987 1.127384
-6.402209 6.401533 1.154930
-7.843420 -2.013644 1.348770
-7.378678 -2.044691 1.346135
-6.888439 -2.026076 1.332772
-6.418314 -2.095009 1.301473
-7.886040 -1.562028 1.415228
-7.813488 -0.879060 1.399732
-7.729790 -0.370712 1.382903
-7.637147 -0.148226 1.342770
-7.619884 0.460872 1.389318
-7.774567 0.553975 1.344661
-11.839675 2.742753 1.412109
-9.809201 2.703147 1.402600
-9.365519 2.675207 1.346008
-8.863636 2.630187 1.328318
-8.358045 2.593244 1.365162
-12.514489 2.997399 1.479243
-10.177814 2.758751 1.349367
-12.498637 3.486857 1.313825
-12.465187 3.928528 1.367767
-9.769458 4.242698 1.353991
-9.769551 4.379402 1.313590
-9.713915 4.912709 1.360016
-7.025525 5.235711 1.405172
-7.033633 5.403638 1.348503
-7.043100 5.583268 1.409520
-7.017292 5.884871 1.330099
-6.985468 6.100886 1.337247
-6.656487 6.380451 1.292241
-6.050857 6.426736 1.479355
-4.541606 -2.266958 1.687937
-4.107867 -2.275204 1.693711
-2.881027 -2.411757 1.665863
-7.873590 -2.009784 1.569644
-7.378370 -2.029567 1.555058
-6.880032 -2.053552 1.549995
-7.918781 -1.576601 1.698785
-7.878768 -1.063250 1.692174
-7.843135 -0.674764 1.627739
-7.829012 -0.133010 1.611079
-7.786162 0.418161 1.586030
-7.759081 0.828092 1.524003
-10.092832 2.721414 1.619834
-9.611463 2.677528 1.642959
-9.127612 2.642002 1.574728
-8.619337 2.602110 1.542915
-12.455443 2.960340 1.517897
-11.642332 2.830853 1.613531
-10.789765 2.798177 1.586866
-12.319846 3.164402 1.551042
-12.450672 3.848352 1.545554
-12.406727 4.111751 1.558364
-11.952526 4.164099 1.681782
-9.735304 4.735090 1.674264
-9.709682 5.138768 1.601823
-9.685935 5.394721 1.605002
-9.643488 5.641112 1.635886
-7.015550 5.965285 1.588365
-7.025515 6.157435 1.560140
-6.998938 6.373966 1.542515
-5.830132 6.360340 1.604860
-4.387290 -2.327546 1.852122
-3.898596 -2.358394 1.825601
-3.414974 -2.389298 1.956193
-2.881889 -2.412269 1.840615
-2.458715 -2.440776 1.836230
-7.634519 -2.034320 1.847667
-7.225107 -2.033180 1.772874
-7.903825 -1.432349 1.786636
-10.612636 2.747301 1.845096
-10.137295 2.710292 1.806543
-9.644390 2.674430 1.779041
-9.064242 2.615301 1.752739
-11.867316 2.841336 1.830786
-11.370763 2.828996 1.798422
-10.874491 2.773189 1.861264
-12.120120 3.350388 1.832703
-11.285834 3.649724 1.928566
-12.061675 3.906018 1.846954
-12.043217 4.079516 1.831127
-7.185878 4.032507 1.961957
-7.149472 4.560628 1.973653
-9.728057 4.948460 1.830883
-9.710321 5.114819 1.801960
-9.652548 5.671297 1.834313
-6.321347 6.389180 1.922601
-5.820846 6.341706 1.795634
-5.420892 -2.259965 2.081782
-4.873960 -2.322818 2.098741
-4.365002 -2.318934 2.081161
-3.810806 -2.383784 2.087076
-3.400245 -2.388828 2.100360
-2.817732 -2.429566 2.088381
-2.363013 -2.478056 2.188687
-7.628965 -2.036900 2.061639
-5.626140 -2.247754 2.135403
-7.958783 -1.879268 2.115706
-10.624047 2.734648 2.067102
-10.118074 2.700329 2.040313
-7.343442 2.598650 2.206114
-11.873527 2.830466 2.050581
-11.362452 2.795763 2.111455
-10.843202 2.756115 2.076088
-12.149084 3.121033 2.060051
-12.060809 3.408699 2.086730
-7.262999 3.391927 2.129402
-11.657866 3.656133 2.106892
-12.053080 3.940507 2.090296
-11.360315 3.801682 2.000539
-12.049103 4.065683 2.065172
-9.774460 4.459215 2.026563
-9.759565 4.636008 2.058557
-7.155697 4.638883 2.100803
-9.722985 4.881772 2.051304
-7.149254 4.835250 2.124385
-7.106359 5.350491 2.147882
-6.509745 6.404431 2.072473
-5.844654 -2.258819 2.357368
-5.374537 -2.278391 2.362032
-4.870082 -2.325708 2.365151
-4.392551 -2.350857 2.352755
-3.860464 -2.386754 2.357832
-3.326067 -2.411579 2.390651
-2.842029 -2.440432 2.283441
-2.141682 -2.487192 2.427884
-5.855859 -2.241556 2.431789
-5.495663 -2.230043 2.253405
-7.365740 2.413439 2.356815
-10.729288 2.711593 2.362718
-12.151600 2.864075 2.276774
-11.626472 2.806216 2.288508
-12.121922 3.217067 2.277666
-12.035909 3.400532 2.321137
-12.056256 3.602427 2.365108
-11.736431 3.693672 2.429302
-7.239006 3.655933 2.280656
-11.954165 3.781478 2.398021
-7.211790 4.134827 2.358814
-7.171220 4.616210 2.354367
-7.276612 5.151256 2.388837
-7.110749 5.376953 2.365105
-5.833204 6.261419 2.395588
-5.398584 -2.277714 2.546575
-4.889194 -2.319968 2.542728
-4.413111 -2.363027 2.519889
-3.875516 -2.376807 2.598684
-3.400035 -2.391382 2.588480
-6.166437 -2.168602 2.540113
-5.605196 -2.163832 2.607745
-5.104983 -2.098845 2.633584
-4.061329 -2.110619 2.668482
-3.643894 -2.079269 2.691506
-6.310611 -1.832359 2.565401
-5.914800 -1.842773 2.613538
-5.357646 -1.852794 2.625444
-4.937918 -1.869141 2.643255
-3.931345 -1.894820 2.687513
-6.155728 -1.603278 2.595767
-5.367710 -1.631295 2.639292
-4.984120 -1.611691 2.661146
-6.180851 -1.376479 2.624379
-5.056295 -1.398531 2.672928
-6.189041 -1.124455 2.644990
-5.181356 -1.167167 2.698711
-6.199281 -0.845204 2.677155
-6.198931 -0.498538 2.726187
-5.848645 -0.086736 2.741364
-5.860724 0.140065 2.748785
-6.038123 0.404684 2.746191
-6.823101 0.571638 2.730736
-7.029380 0.879694 2.737777
-7.030746 1.154620 2.747900
-7.429586 1.911772 2.626061
-7.378455 2.391954 2.601229
-7.321884 2.908734 2.604279
-7.282693 3.382517 2.587355
-7.242779 3.887666 2.597015
-7.200946 4.386010 2.605520
-7.157165 4.897108 2.619642
-7.115413 5.350052 2.592664
-9.440877 5.629696 2.624504
-5.862062 6.241196 2.653160
-5.786210 6.265555 2.628489
-3.281085 -0.834545 2.795414
-3.539991 -0.593688 2.787884
-3.144121 -0.593534 2.800514
-3.377088 -0.348857 2.817906
-2.894120 -0.409600 2.822604
-2.441269 -0.370105 2.833679
-5.034495 -0.067734 2.785641
-3.384718 -0.116797 2.833139
-2.861946 -0.031269 2.835524
-5.673429 0.138486 2.761000
-4.888357 0.146291 2.806870
-3.363120 0.149434 2.844435
-2.906502 0.145615 2.844904
-5.877412 0.393522 2.769063
-5.100346 0.396297 2.794191
-4.738483 0.341299 2.809967
-3.529949 0.436379 2.855355
-3.121823 0.352595 2.860717
-6.356529 0.663512 2.765905
-5.878387 0.640800 2.775723
-5.400349 0.696288 2.811974
-4.876315 0.655625 2.827206
-3.928903 0.585190 2.855017
-3.375046 0.631076 2.861730
-2.956765 0.582707 2.867962
-6.409246 0.880805 2.764863
-5.877047 0.875260 2.779528
-5.378644 0.888986 2.820760
-4.877782 0.876328 2.830812
-4.265275 0.929768 2.838886
-3.900975 0.879559 2.870480
-3.352008 0.890765 2.859441
-6.858817 1.140360 2.752300
-6.395596 1.156503 2.779025
-5.866537 1.144661 2.787137
-5.385557 1.142111 2.827727
-4.895147 1.133200 2.836337
-4.345532 1.133544 2.871902
-3.934946 1.141601 2.887977
-7.353580 1.482934 2.750451
-6.864282 1.391487 2.763672
-6.377867 1.385514 2.787185
-5.881622 1.381623 2.802500
-5.374242 1.395911 2.831089
-4.887863 1.390521 2.852472
-4.366092 1.385587 2.869183
-3.895163 1.393304 2.914330
-7.401213 1.652951 2.750414
-6.862989 1.645006 2.775417
-6.384212 1.637622 2.793949
-5.865863 1.634949 2.816160
-5.373105 1.645521 2.836222
-4.871885 1.639545 2.866928
-4.377505 1.641213 2.873872
-3.886780 1.615129 2.916040
-3.476310 1.557744 2.935750
-7.141908 1.890727 2.780753
-6.628832 1.892262 2.794235
-6.112532 1.895126 2.816134
-5.618092 1.890984 2.839920
-5.125915 1.887759 2.858586
-4.616257 1.882887 2.879088
-4.126276 1.891806 2.909108
-3.648176 1.873362 2.934614
-7.122622 2.147303 2.796877
-6.615419 2.145248 2.809005
-6.121527 2.136347 2.832387
-5.627591 2.141164 2.852189
-5.124846 2.137394 2.870204
-4.625094 2.137035 2.890808
-4.125124 2.137480 2.910056
-3.724572 2.044739 2.932328
-7.126749 2.385608 2.814529
-6.617776 2.398771 2.820000
-6.120724 2.383934 2.847251
-5.623926 2.390615 2.863396
-5.116556 2.382622 2.884743
-4.625543 2.384924 2.903492
-4.128356 2.382781 2.919466
-7.314141 2.641219 2.801109
-6.885733 2.629939 2.838171
-6.371765 2.643017 2.851329
-5.869477 2.635033 2.868397
-5.377342 2.630014 2.890784
-4.873793 2.631595 2.904809
-4.372403 2.634573 2.920444
-3.975832 2.540940 2.943136
-7.119297 2.880777 2.852079
-6.609280 2.895699 2.855783
-6.122057 2.873143 2.878364
-5.621489 2.891896 2.892233
-5.123634 2.882335 2.907766
-4.621493 2.882353 2.928743
-4.169362 2.859764 2.944586
-7.134189 3.133944 2.877889
-6.607618 3.145705 2.878326
-6.096607 3.138866 2.891840
-5.631417 3.121969 2.912469
-5.122969 3.132483 2.920298
-4.622256 3.127762 2.935602
-4.219974 3.040910 2.954871
-7.104619 3.394851 2.883898
-6.631038 3.375349 2.899417
-6.110270 3.396940 2.907415
-5.634822 3.386797 2.924702
-5.126559 3.375820 2.941914
-4.624561 3.377855 2.944578
-7.265539 3.640197 2.814604
-6.861409 3.638569 2.906535
-6.347101 3.640079 2.926116
-5.885465 3.617893 2.941801
-5.361775 3.639846 2.946215
-4.857743 3.641337 2.952218
-4.466486 3.573032 2.970818
-7.132210 3.886406 2.902772
-6.623482 3.891722 2.939222
-6.126920 3.883993 2.947098
-5.553712 3.929880 2.969022
-5.165576 3.855171 2.977362
-4.656217 3.869109 2.966309
-6.860100 4.134306 2.947215
-6.365029 4.131326 2.957692
-5.893024 4.166075 2.976060
-5.370027 4.117764 2.982818
-4.889352 4.137106 2.979777
-7.145813 4.388237 2.899442
-6.618435 4.389231 2.970086
-6.137349 4.362969 2.985821
-5.675002 4.290690 2.971155
-5.118842 4.304632 2.975650
-7.134448 4.635929 2.910317
-6.612215 4.636982 2.981080
-7.070171 4.844165 2.949737
-6.585831 4.828414 2.985070
-7.097917 5.125506 2.930855
-7.118773 5.370794 2.844366
-7.068104 5.929710 2.883111
-6.070018 6.238673 2.872001
-6.268901 6.259250 2.839534
-5.613250 4.386712 3.008952
-5.121724 4.408666 3.010605
-6.118599 4.633664 3.011414
-5.615714 4.630441 3.019012
-5.149907 4.611660 3.019735
-6.365068 4.882029 3.004837
-5.866311 4.883327 3.016568
-5.370850 4.882142 3.021033
-6.614687 5.134834 3.009809
-6.112400 5.133677 3.022268
-5.619669 5.132264 3.024818
-7.059222 5.395310 3.001493
-6.614482 5.388070 3.027781
-6.116533 5.380776 3.037022
-5.624924 5.380416 3.041347
-7.047104 5.653446 3.018581
-6.621851 5.628258 3.033257
-6.101934 5.622761 3.048747
-5.623523 5.618618 3.054601
-6.865377 5.886760 3.039809
-6.356893 5.864207 3.059033
-5.869120 5.873366 3.065401
-7.032058 6.113377 3.034070
-6.294032 6.163631 3.071965
-5.858200 6.133974 3.067963
-6.582653 6.241024 3.264165
-2.376913 -10.156008 -1.292242
-12.559646 3.227577 -1.335816
-2.410167 -10.080294 -1.076808
-2.924740 -9.053061 -1.122660
-3.380852 -8.619602 -1.076848
-2.458303 -10.803193 -0.907651
-2.356402 -9.724961 -0.858078
-3.138790 -8.890363 -0.869364
-3.819659 -8.156651 -0.935674
-3.220736 -5.358911 -0.785400
-3.134661 -4.453716 -0.821423
-4.101365 -3.907027 -0.808760
-3.785663 -3.721055 -0.777081
-3.947429 -3.362865 -0.771351
-3.749569 -3.134970 -0.768008
-3.974625 -2.845632 -0.757897
-4.087984 -2.672684 -0.766852
-4.209583 -2.424839 -0.763531
-5.852135 -2.017896 -0.781866
-5.369657 -2.036427 -0.776995
-4.891027 -2.046768 -0.772211
-7.158256 -1.870302 -0.820786
-6.659284 -1.949106 -0.817574
-6.148460 -1.949610 -0.820967
-5.588414 -1.916700 -0.803808
-5.161445 -1.832004 -0.792222
-7.273500 -1.723164 -0.831724
-6.853011 -1.601926 -0.846400
-6.390567 -1.646231 -0.849080
-5.784403 -1.651302 -0.817995
-5.293957 -1.667124 -0.795001
-7.519800 -1.338967 -0.825177
-7.197541 -1.320467 -0.803452
-6.639628 -1.350936 -0.823850
-6.129093 -1.334538 -0.809007
-5.356524 -1.404448 -0.778857
-7.570743 -1.122757 -0.804726
-7.144415 -1.147220 -0.813486
-6.582830 -1.028119 -0.791917
-6.196103 -1.178315 -0.796282
-5.584491 -1.161723 -0.759142
-5.192298 -1.220466 -0.753212
-7.326214 -0.856667 -0.807986
-6.893191 -0.860675 -0.784866
-6.361203 -0.844059 -0.765283
-7.132795 -0.629073 -0.781622
-6.621646 -0.624482 -0.763796
-7.096118 -0.393597 -0.769661
-12.355099 3.083255 -0.933119
-12.329596 4.193343 -0.889943
-12.272659 4.388102 -0.847664
-11.872690 4.438859 -0.758820
-2.369604 -9.739331 -0.696440
-3.164320 -8.884928 -0.612600
-3.227801 -5.388475 -0.620852
-3.139522 -4.496384 -0.618264
-3.061289 -3.462602 -0.601524
-3.029043 -3.030020 -0.574032
-2.974784 -2.905817 -0.591153
-3.921419 -2.581292 -0.746875
-2.965181 -2.720345 -0.584009
-3.954271 -2.284335 -0.739269
-3.136476 -2.337340 -0.695379
-2.083260 -2.297645 -0.558679
0.939737 -2.320105 -0.698111
-6.377257 -2.012551 -0.585651
-5.878487 -2.039363 -0.637965
-5.383945 -2.074217 -0.636270
-4.857331 -2.094248 -0.613573
-4.144228 -2.081482 -0.729097
-3.684102 -2.208293 -0.689859
-3.186047 -2.200177 -0.718815
-2.665142 -2.234201 -0.619963
-2.067309 -2.164691 -0.623250
-0.627694 -2.070595 -0.565142
0.647224 -2.219187 -0.543817
-7.295797 -1.859578 -0.648830
-6.942608 -1.955487 -0.740770
-6.440722 -1.992397 -0.704625
-4.335211 -1.904987 -0.736161
-3.868565 -1.799849 -0.710657
-3.084769 -1.965714 -0.724506
-2.594296 -1.913746 -0.628393
-1.813242 -1.857338 -0.574869
-1.383414 -1.927120 -0.578979
-4.682596 -1.635618 -0.720928
-4.096971 -1.700638 -0.715315
-3.485385 -1.697367 -0.685557
-2.236366 -1.676514 -0.613271
-1.589463 -1.587809 -0.626410
-7.665685 -1.251426 -0.524389
-4.882255 -1.486702 -0.747155
-4.341480 -1.436196 -0.714933
-3.876970 -1.321172 -0.673348
-3.409274 -1.342309 -0.674002
-2.827289 -1.412254 -0.619696
-2.340849 -1.308241 -0.586974
-7.195113 -1.197137 -0.622994
-4.615438 -1.084480 -0.709246
-4.165145 -1.089687 -0.684768
-3.625834 -1.117910 -0.663500
-3.091520 -1.195752 -0.645169
-2.665810 -1.184968 -0.614735
-2.082526 -1.224477 -0.626740
-7.783235 -0.916003 -0.563835
-5.947682 -0.913152 -0.748808
-5.337092 -0.847216 -0.722451
-4.893347 -0.865494 -0.700789
-4.374945 -0.897406 -0.684286
-3.872050 -0.852929 -0.654495
-3.382969 -0.915474 -0.649010
-2.890433 -0.827212 -0.630799
-2.423246 -0.896957 -0.616673
-1.679603 -0.787753 -0.549287
-1.159339 -0.854561 -0.551517
-0.331576 -0.922912 -0.543491
-7.680547 -0.634450 -0.711792
-6.109076 -0.600940 -0.739968
-5.636816 -0.623991 -0.718722
-5.130886 -0.655798 -0.701377
-4.617354 -0.616425 -0.682375
-4.166345 -0.642895 -0.660114
-3.646384 -0.583571 -0.645211
-3.163684 -0.633763 -0.616844
-2.699013 -0.593273 -0.604407
-2.194620 -0.675116 -0.588243
-1.101782 -0.629957 -0.550704
-7.619924 -0.382758 -0.707936
-7.009628 -0.312763 -0.745376
-6.378003 -0.374560 -0.741513
-5.896049 -0.345209 -0.714549
-5.368985 -0.400729 -0.701036
-4.835517 -0.354471 -0.674115
-4.358555 -0.380417 -0.658335
-3.847050 -0.363664 -0.641459
-3.373034 -0.399136 -0.617386
-2.905191 -0.391438 -0.597562
-2.430030 -0.415813 -0.582340
-1.895569 -0.284894 -0.552369
-7.468740 -0.095116 -0.676224
-6.862572 -0.097653 -0.740396
-6.379078 -0.122222 -0.729756
-5.898177 -0.103158 -0.706493
-5.364479 -0.130535 -0.688058
-4.885601 -0.136279 -0.670039
-4.376887 -0.136161 -0.647670
-3.880134 -0.139478 -0.632014
-3.377257 -0.155357 -0.602108
-2.883647 -0.118937 -0.587482
-2.351687 -0.074355 -0.555349
-1.621802 -0.116689 -0.506215
-0.922613 -0.077907 -0.504287
-7.126790 0.142222 -0.723672
-6.629994 0.142553 -0.719564
-6.093510 0.119199 -0.703360
